1.293923 1.294488 0.000000 0.000000 0.000000 0.000000 0.000000 0.000000 0.000000 0.000000 0.000000 0.000000 0.000000 0.000000 0.000000 0.000000 0.000000 0.000000 0.000000 0.000000 0.000000 0.000000 0.000000 0.000000 0.000000 0.000000 0.000000 0.000000 0.000000 0.000000 0.000000 1.409001 1.430271 1.447641 1.459930 1.466348 1.472461 1.519059 1.518041 1.517985 1.518029 1.523426 1.518234 0.000000 1.517557 1.517925 0.000000 0.000000 0.000000 0.000000 0.000000 0.000000 0.000000 0.000000 0.000000 0.000000 0.000000 0.000000 0.000000 0.000000 0.000000 0.000000 0.000000 0.000000 0.000000 0.000000 0.000000 0.000000 0.000000 0.000000 0.000000 0.000000 0.000000 0.000000 0.000000 0.000000 0.000000 0.000000 0.000000 0.000000 0.000000 0.000000 0.000000 0.000000 0.000000 0.000000 0.000000 0.000000 0.000000 0.000000 0.000000 0.000000 0.000000 0.000000 0.000000 0.000000 0.000000 0.000000 0.000000 0.000000 0.000000 0.000000 0.000000 0.000000 0.000000 0.000000 0.000000 0.000000 1.571187 1.571412 1.571812 1.571812 1.569563 1.567714 1.564811 1.564811 1.564811 1.564811 1.564558 1.563932 1.563910 1.564136 1.566556 1.578376 1.601333 1.611060 1.622874 1.623554 1.622633 1.623796 1.630467 1.637762 1.638955 1.645629 1.653176 1.653176 1.653331 1.654501 1.653176 1.664420 1.810393 1.811570 1.842124 1.842155 1.844095 0.000000 0.000000 0.000000 0.000000 0.000000 1.863660 1.863660 1.863660 1.854583 1.853826 1.851672 1.844892 1.834765 1.834465 1.834465 1.832437 1.826149 1.824935 1.830604 0.000000 2.094815 2.149459 2.148624 2.145930 2.145005 2.248712 2.544057 2.580976 2.714552 2.712741 2.727078 2.719682 2.712741 2.712741 2.712741 2.712741 2.712741 2.712741 2.712741 2.712741 0.000000 0.000000 2.712741 2.712741 2.712741 2.716107 2.719713 2.726256 2.733852 2.719850 2.725678 2.372084 2.365657 2.365657 2.365657 2.365657 2.365657 2.365657 2.360694 2.416493 2.629681 2.741289 2.741312 2.741334 2.736196 2.720150 2.741416 2.741434 2.741452 2.741468 2.740265 2.731838 2.720285 2.699409 2.697333 2.676375 2.649776 2.631461 2.631461 2.632290 2.651927 2.692006 2.699460 2.740928 2.754906 2.762894 2.776355 2.777075 2.777075 2.777075 2.777075 2.777075 2.777075 2.777075 2.777075 2.777075 2.777075 2.783571 2.777075 2.777075 2.766519 2.763203 2.757372 2.755294 2.755294 2.760821 2.748541 2.750694 2.755294 2.760333 2.771894 2.777075 2.781895 2.785052 2.793244 2.799203 2.787138 2.777075 2.777075 2.777075 2.777075 2.770352 2.767120 2.755294 2.755294 2.755294 2.755294 2.755294 2.758244 2.763147 2.768007 2.777075 2.777075 2.777075 2.773171 2.761107 2.751850 2.741692 2.755294 2.755294 2.755294 2.755294 2.755294 2.755294 2.755294 2.755294 2.755294 2.755294 2.754568 2.733852 2.733852 2.742076 2.721807 2.713351 2.731910 2.733852 2.741461 2.742669 2.742744 2.752927 2.748069 2.746144 2.736393 2.718938 2.712741 2.712741 2.705506 2.721248 2.720554 2.717199 2.727904 2.733484 2.733768 2.743274 2.755294 2.751347 2.741136 2.737538 2.745641 2.740835 2.722297 2.711243 2.705326 2.714048 2.727040 2.747567
1.294314 1.294489 0.000000 0.000000 0.000000 0.000000 0.000000 0.000000 0.000000 0.000000 0.000000 0.000000 0.000000 0.000000 0.000000 0.000000 0.000000 0.000000 0.000000 0.000000 0.000000 0.000000 0.000000 0.000000 0.000000 0.000000 1.402395 1.402395 1.407830 1.408016 1.408016 1.418833 1.435855 1.448843 1.459980 1.466812 1.472922 1.513575 1.517495 1.523434 1.524078 1.524078 1.518242 0.000000 1.518260 1.522841 0.000000 0.000000 0.000000 0.000000 0.000000 0.000000 0.000000 0.000000 0.000000 0.000000 0.000000 0.000000 0.000000 0.000000 0.000000 0.000000 0.000000 0.000000 0.000000 0.000000 0.000000 0.000000 0.000000 0.000000 0.000000 0.000000 0.000000 0.000000 0.000000 0.000000 0.000000 0.000000 0.000000 0.000000 0.000000 0.000000 0.000000 0.000000 0.000000 0.000000 0.000000 0.000000 0.000000 0.000000 0.000000 0.000000 0.000000 0.000000 0.000000 0.000000 0.000000 0.000000 0.000000 0.000000 0.000000 0.000000 0.000000 0.000000 0.000000 0.000000 0.000000 0.000000 1.571812 1.571812 1.571812 1.571812 1.569332 1.565085 1.564811 1.564811 1.564811 1.564811 1.563047 1.558810 1.560466 1.564811 1.573989 1.589210 1.606905 1.611014 1.622633 1.622633 1.622633 1.623996 1.631466 1.637762 1.638931 1.645433 1.647663 1.653176 1.653176 1.652588 1.659055 1.804943 0.000000 1.846016 1.843757 1.836533 1.836562 1.836590 0.000000 0.000000 0.000000 0.000000 1.863660 1.863660 1.863660 1.854611 1.853826 1.847285 1.844373 1.844095 1.835850 1.834465 1.834465 1.834465 1.834465 0.000000 2.080541 2.152307 2.141430 2.139298 2.139330 2.146158 2.148624 0.000000 2.522196 2.712741 2.712741 2.717067 2.714876 2.703462 2.698419 2.698463 2.698506 2.698549 2.698591 2.698632 2.698673 2.698713 2.698791 0.000000 0.000000 0.000000 2.712741 2.712741 2.716039 2.719938 2.712741 2.715761 2.379484 2.365657 2.365657 2.365657 2.365657 2.365657 2.365657 2.360713 2.447449 2.714912 2.720356 2.720377 2.720398 2.718574 2.699551 2.702255 2.712741 2.712741 2.712741 2.712741 2.710817 2.699659 2.690516 2.678344 2.669687 2.649786 2.631461 2.631461 2.631764 2.639747 2.691954 2.691954 2.733128 2.741685 2.754752 2.755294 2.763357 2.763359 2.763361 2.763362 2.763363 2.763363 2.763362 2.774909 2.777075 2.777075 2.777075 2.766304 2.773936 2.760482 2.755294 2.745317 2.741766 2.741762 2.745948 2.736396 2.739098 2.750579 2.755294 2.760324 2.771781 2.777075 2.777075 2.781780 2.785185 2.780771 2.777075 2.777075 2.770073 2.763269 2.759430 2.759020 2.755294 2.755294 2.755294 2.749807 2.741722 2.741728 2.746640 2.758089 2.763330 2.763342 2.763356 2.761105 2.751703 2.739826 2.733852 2.741898 2.741922 2.744298 2.753135 2.743935 2.755294 2.755294 2.754214 2.743036 2.754658 2.742006 2.733669 2.721169 2.721181 2.713070 2.712741 2.720597 2.732443 2.733852 2.733852 2.733852 2.741262 2.752686 2.736266 2.725387 2.707555 2.701413 2.701519 2.702486 2.714875 2.717449 2.713133 2.718168 2.723179 2.723034 2.736682 2.755294 2.747257 2.730489 2.724281 2.729146 2.713169 2.704052 2.702271 2.693542 2.704668 2.706133 2.726103
1.298161 1.294843 0.000000 0.000000 0.000000 0.000000 0.000000 0.000000 0.000000 0.000000 0.000000 0.000000 0.000000 0.000000 0.000000 0.000000 0.000000 0.000000 0.000000 0.000000 0.000000 0.000000 0.000000 0.000000 0.000000 0.000000 1.402395 1.402395 1.407826 1.408016 1.408405 1.418844 1.435839 1.459239 1.460707 1.472482 1.478646 1.514055 1.517495 1.523426 1.524078 1.524078 1.518590 0.000000 1.517862 1.518165 0.000000 1.567844 1.752120 1.752120 1.752120 1.737665 1.734815 1.734815 1.741838 1.736438 0.000000 0.000000 0.000000 0.000000 0.000000 0.000000 0.000000 0.000000 0.000000 0.000000 0.000000 0.000000 0.000000 0.000000 0.000000 0.000000 0.000000 0.000000 0.000000 0.000000 0.000000 0.000000 0.000000 0.000000 0.000000 0.000000 0.000000 0.000000 0.000000 0.000000 0.000000 0.000000 0.000000 0.000000 0.000000 0.000000 0.000000 0.000000 0.000000 0.000000 0.000000 0.000000 0.000000 0.000000 0.000000 0.000000 0.000000 0.000000 0.000000 0.000000 0.000000 0.000000 1.571812 1.571812 1.571812 1.571812 1.571515 1.564811 1.564811 1.564811 1.564811 1.563025 1.558570 1.559527 1.564057 1.564811 1.576702 1.595704 1.609169 1.615807 1.622633 1.622633 1.622633 1.623972 1.631442 1.638755 1.644200 1.645433 1.645617 1.646981 1.647004 1.646323 1.653816 0.000000 1.836505 1.836533 1.843695 1.834465 1.834620 1.841964 1.853831 1.863564 1.863660 1.863660 1.863660 1.863660 1.863660 1.854638 1.853826 1.851535 1.851243 1.844095 1.841848 1.835562 1.834465 1.834465 1.834465 0.000000 2.076932 2.148624 2.138612 2.135562 2.135562 2.145110 2.155253 0.000000 2.524411 2.702639 2.698353 2.708082 2.703217 2.685283 2.686793 2.691954 2.691954 2.691954 2.691954 2.691954 2.684226 2.685809 2.691954 0.000000 0.000000 0.000000 2.699091 2.699125 2.705382 2.712741 2.699255 2.699286 2.388042 2.375601 2.365657 2.365657 2.365657 2.365657 2.365657 2.424506 2.608735 2.712741 2.712741 2.712741 2.712741 2.709604 2.691954 2.693532 2.699724 2.702079 2.712741 2.710692 2.698639 2.691954 2.691086 2.682866 2.669707 2.649804 2.631461 2.632101 2.643996 2.652269 2.691954 2.691954 2.733119 2.746632 2.754958 2.755294 2.755294 2.735458 2.741348 2.743520 2.742066 2.742066 2.742065 2.753207 2.755294 2.755294 2.755294 2.744899 2.752270 2.755294 2.755294 2.739458 2.724374 2.715045 2.718384 2.715329 2.712741 2.717988 2.734360 2.742007 2.750193 2.760297 2.763569 2.763564 2.763562 2.751794 2.763416 2.763415 2.759300 2.755294 2.755294 2.755294 2.755294 2.755294 2.755294 2.746619 2.733852 2.733852 2.736760 2.755294 2.755294 2.751173 2.741947 2.741963 2.739823 2.733852 2.723675 2.733852 2.733852 2.737591 2.751840 2.735051 2.742212 2.742247 2.741646 2.734389 2.742014 2.733480 2.721164 2.712790 2.712741 2.701016 2.700569 2.712741 2.720642 2.721763 2.721839 2.721919 2.722002 2.729446 2.722274 2.715454 2.698255 2.691954 2.691954 2.698149 2.708449 2.718686 2.728284 2.728659 2.728967 2.728269 2.738615 2.749252 2.747425 2.726716 2.712741 2.716745 2.691954 2.691954 2.691954 2.691954 2.691954 2.692966 2.712741
1.298706 1.298749 0.000000 0.000000 0.000000 0.000000 0.000000 0.000000 0.000000 0.000000 0.000000 0.000000 0.000000 0.000000 0.000000 0.000000 0.000000 0.000000 0.000000 0.000000 0.000000 0.000000 0.000000 0.000000 0.000000 0.000000 1.402395 1.402395 1.407822 1.408016 1.413425 1.419436 1.435843 1.458879 1.466363 1.472476 1.480217 1.514170 1.517495 1.523419 1.524078 1.524078 1.524078 0.000000 1.524078 1.529574 1.530432 1.715866 1.751768 1.752067 1.752120 1.737691 1.734815 1.734815 1.741605 1.736404 0.000000 0.000000 0.000000 0.000000 0.000000 0.000000 0.000000 0.000000 0.000000 0.000000 0.000000 0.000000 0.000000 0.000000 0.000000 0.000000 0.000000 0.000000 0.000000 0.000000 0.000000 0.000000 0.000000 0.000000 0.000000 0.000000 0.000000 0.000000 0.000000 0.000000 0.000000 0.000000 0.000000 0.000000 0.000000 0.000000 0.000000 0.000000 0.000000 0.000000 0.000000 0.000000 0.000000 0.000000 0.000000 0.000000 0.000000 0.000000 0.000000 0.000000 0.000000 0.000000 1.571812 1.571812 1.571812 1.571812 1.571812 1.564811 1.564811 1.564811 1.564811 1.564505 1.562067 1.559787 1.564811 1.564811 1.576908 1.599345 1.620328 1.621594 1.622633 1.622633 1.622633 1.625020 1.636543 1.638958 1.645433 1.645433 1.645433 1.644776 1.638206 1.627354 1.639605 0.000000 1.820176 1.827556 1.836591 1.834465 1.834506 1.836950 1.861209 1.863630 1.863660 1.863660 1.863660 1.863660 1.856937 1.854048 1.853826 1.853826 1.847571 1.844095 1.844095 1.841794 1.841329 1.835708 1.839960 0.000000 2.077837 2.148624 2.138644 2.135562 2.142260 2.154179 2.160685 0.000000 2.515845 2.693929 2.691954 2.696405 2.684937 2.673867 2.675683 2.678208 2.678250 2.686405 2.683985 2.686128 2.680432 2.675306 2.684862 0.000000 0.000000 0.000000 2.691954 2.691954 2.695317 2.690385 2.678820 2.678849 2.391608 2.379470 2.375783 2.372176 2.365657 2.365657 2.365657 2.462557 2.708867 2.699715 2.699736 2.699756 2.699776 2.691954 2.691954 2.691954 2.691954 2.693376 2.699892 2.698657 2.691954 2.691954 2.690560 2.678591 2.669716 2.649812 2.631461 2.631861 2.639646 2.652128 2.691954 2.691954 2.720435 2.741567 2.742192 2.742194 2.742196 2.722551 2.732724 2.734771 2.733852 2.733852 2.733852 2.740883 2.742196 2.742194 2.742189 2.735645 2.740285 2.742181 2.742178 2.726485 2.714986 2.712741 2.712741 2.712741 2.712741 2.712741 2.726250 2.733852 2.747052 2.755294 2.755294 2.755294 2.747960 2.737625 2.733852 2.733852 2.733852 2.737931 2.738150 2.755294 2.749472 2.747769 2.755294 2.746626 2.733852 2.733852 2.733852 2.733852 2.733852 2.733852 2.730097 2.721044 2.721064 2.719008 2.712741 2.712741 2.714327 2.721218 2.717944 2.703302 2.721322 2.721361 2.711811 2.721308 2.721354 2.721169 2.712741 2.712741 2.712741 2.692700 2.700101 2.700897 2.700969 2.701043 2.701121 2.701202 2.701287 2.701375 2.701564 2.701664 2.694986 2.691954 2.691954 2.691954 2.704307 2.712741 2.717919 2.723147 2.723924 2.717705 2.724172 2.732510 2.738156 2.720752 2.712741 2.705778 2.685468 2.691954 2.691954 2.691954 2.691954 2.692468 2.706012
1.302959 1.299511 0.000000 0.000000 0.000000 0.000000 0.000000 0.000000 0.000000 0.000000 0.000000 0.000000 0.000000 0.000000 0.000000 0.000000 0.000000 0.000000 0.000000 0.000000 0.000000 0.000000 0.000000 0.000000 0.000000 0.000000 1.402395 1.402690 1.407828 1.408301 1.413714 1.424572 1.436418 1.453827 1.466351 1.472463 1.473153 1.513354 1.517495 1.523403 1.524078 1.524078 1.524078 0.000000 0.000000 0.000000 0.000000 1.707371 1.743424 1.743424 1.750681 1.737900 1.735190 1.735042 1.734848 1.734815 0.000000 0.000000 0.000000 0.000000 0.000000 0.000000 0.000000 0.000000 0.000000 0.000000 0.000000 0.000000 0.000000 0.000000 0.000000 0.000000 0.000000 0.000000 0.000000 0.000000 0.000000 0.000000 0.000000 0.000000 0.000000 0.000000 0.000000 0.000000 0.000000 0.000000 0.000000 0.000000 0.000000 0.000000 0.000000 0.000000 0.000000 0.000000 0.000000 0.000000 0.000000 0.000000 0.000000 0.000000 0.000000 0.000000 0.000000 0.000000 0.000000 0.000000 0.000000 0.000000 1.571812 1.571812 1.571812 1.571812 1.571812 1.568827 1.564811 1.564811 1.564811 1.563101 1.558671 1.559766 1.564811 1.566292 1.582694 1.604455 1.622633 1.622633 1.623854 1.627546 1.622633 1.624183 1.632671 1.638001 1.639343 1.639366 1.638723 1.633305 1.644538 0.000000 1.775193 0.000000 1.815646 1.825037 1.827464 1.834648 1.841724 1.841768 1.856207 1.863546 1.863660 1.863660 1.863660 1.863660 1.861198 1.854455 1.853826 1.853826 1.851408 1.845003 1.845144 1.844095 1.844095 1.836237 1.842202 0.000000 2.077748 2.148624 2.138675 2.135562 2.138576 2.149199 2.159278 0.000000 2.510558 2.682294 2.678107 2.678151 2.673757 2.671483 2.671483 2.671483 2.671483 2.675608 2.674407 2.675495 2.674599 2.671483 2.674893 2.675188 2.678743 2.678777 2.678810 2.684960 2.685970 2.675701 2.671483 2.671483 2.385376 2.381695 2.381695 2.376014 2.365657 2.365657 2.365657 2.458925 2.697506 2.691954 2.691954 2.691954 2.691954 2.691954 2.691954 2.691954 2.691954 2.691954 2.691954 2.691954 2.691954 2.691954 2.689692 2.671483 2.669725 2.649821 2.631461 2.631461 2.632255 2.651548 2.679559 2.679564 2.699798 2.720466 2.721085 2.721087 2.721089 2.713371 2.720361 2.722495 2.732288 2.733852 2.733852 2.723085 2.731691 2.733852 2.721082 2.721079 2.721076 2.721074 2.721071 2.714923 2.712741 2.712741 2.712741 2.712741 2.712741 2.712741 2.718064 2.721041 2.734117 2.742277 2.742274 2.742273 2.737584 2.733852 2.727029 2.721033 2.721035 2.727341 2.733852 2.742289 2.738562 2.737464 2.742308 2.742317 2.734040 2.721095 2.721107 2.721133 2.725193 2.729968 2.718722 2.712741 2.712741 2.712741 2.712741 2.712741 2.712741 2.712741 2.709489 2.693148 2.702072 2.712741 2.700058 2.692451 2.700802 2.700855 2.700910 2.700968 2.692243 2.691954 2.691954 2.691954 2.691954 2.691954 2.691954 2.691954 2.691954 2.691954 2.691954 2.691954 2.691954 2.691954 2.691954 2.691954 2.691954 2.691954 2.703135 2.707822 2.703269 2.691954 2.696642 2.707179 2.709795 2.695669 2.696043 2.690710 2.675467 2.691954 2.690982 2.685422 2.691954 2.691954 2.691954
1.303720 1.303551 0.000000 0.000000 0.000000 0.000000 0.000000 0.000000 0.000000 0.000000 0.000000 0.000000 0.000000 0.000000 0.000000 0.000000 0.000000 0.000000 0.000000 0.000000 0.000000 0.000000 0.000000 0.000000 0.000000 0.000000 1.408016 1.408016 1.413472 1.413682 1.419120 1.430505 1.447784 1.459938 1.466345 1.472602 1.479614 1.513982 1.517495 1.523396 1.524078 1.524078 1.524078 0.000000 0.000000 0.000000 0.000000 0.000000 1.744833 1.743435 1.750667 1.744915 1.743424 1.743424 1.743424 1.734891 0.000000 0.000000 0.000000 0.000000 0.000000 0.000000 0.000000 0.000000 0.000000 0.000000 0.000000 0.000000 0.000000 0.000000 0.000000 0.000000 0.000000 0.000000 0.000000 0.000000 0.000000 0.000000 0.000000 0.000000 0.000000 0.000000 0.000000 0.000000 0.000000 0.000000 0.000000 0.000000 0.000000 0.000000 0.000000 0.000000 0.000000 0.000000 0.000000 0.000000 0.000000 0.000000 0.000000 0.000000 0.000000 0.000000 0.000000 0.000000 0.000000 0.000000 0.000000 1.578876 1.578475 1.577877 1.575686 1.571812 1.571812 1.569538 1.564811 1.564811 1.564811 1.562801 1.557871 1.559745 1.564811 1.566576 1.574934 1.610026 1.622633 1.622633 1.624116 1.628739 1.623701 1.629879 1.636417 1.637762 0.000000 0.000000 1.651584 0.000000 1.769663 1.773458 1.817699 1.817566 1.815504 1.825240 1.832167 1.834680 1.844183 1.851337 1.861017 1.863613 1.863660 1.863660 1.863660 1.857032 1.856560 1.854077 1.853826 1.853826 1.853826 1.845389 1.845596 1.844095 1.844095 1.836261 1.842178 0.000000 2.076934 2.148624 2.136558 2.135562 2.135562 2.145019 2.158050 0.000000 2.500841 2.673555 2.662289 2.658045 2.658087 2.658129 2.658212 2.658252 2.658292 2.666090 2.671483 2.671483 2.664201 2.658480 2.664701 2.665171 2.665029 2.664911 2.671483 2.674977 2.675588 2.671483 2.671483 2.671483 2.381695 2.381695 2.381695 2.376034 2.365657 2.365657 2.365657 2.456593 2.688247 2.679403 2.679423 2.679442 2.682545 2.679495 2.679511 2.679526 2.681891 2.691954 2.691954 2.691954 2.690168 2.679604 2.678733 2.669103 2.646655 2.638793 2.631461 2.631461 2.631778 2.639749 2.671483 2.671483 2.679549 2.699688 2.700300 2.700302 2.700304 2.700305 2.711652 2.713675 2.720185 2.721222 2.721221 2.714068 2.719786 2.721217 2.702821 2.700293 2.700291 2.700288 2.709608 2.703542 2.700280 2.700277 2.704125 2.700269 2.708562 2.712741 2.712741 2.712741 2.717943 2.721172 2.721170 2.721170 2.721170 2.721171 2.716688 2.712741 2.712741 2.716894 2.721183 2.721193 2.721199 2.721207 2.721215 2.721224 2.717935 2.712741 2.712741 2.712741 2.715463 2.718705 2.712741 2.712741 2.712741 2.712741 2.712741 2.712741 2.712741 2.712741 2.709525 2.691954 2.693019 2.699007 2.680279 2.680957 2.691954 2.691954 2.691937 2.680739 2.680613 2.680678 2.691954 2.691954 2.691954 2.691954 2.691954 2.691954 2.691954 2.691954 2.684505 2.681728 2.681840 2.681957 2.682078 2.682204 2.687881 2.691954 2.691954 2.693122 2.693493 2.691954 2.691954 2.696369 2.700253 2.679551 2.679362 2.677487 2.673798 2.685922 2.690342 2.679482 2.691954 2.691954 2.691954
1.307799 1.304274 0.000000 0.000000 0.000000 0.000000 0.000000 0.000000 0.000000 0.000000 0.000000 0.000000 0.000000 0.000000 0.000000 0.000000 0.000000 0.000000 0.000000 0.000000 0.000000 0.000000 0.000000 0.000000 0.000000 0.000000 1.408016 1.408016 1.413341 1.413677 1.419115 1.435855 1.453691 1.460424 1.466440 1.478768 0.000000 1.518089 1.517495 1.523388 1.524078 1.524078 1.524078 0.000000 0.000000 0.000000 0.000000 0.000000 1.752114 1.744824 1.750654 1.744929 1.743424 1.743424 1.743424 1.736589 1.752120 0.000000 0.000000 0.000000 0.000000 0.000000 0.000000 0.000000 0.000000 0.000000 0.000000 0.000000 0.000000 0.000000 0.000000 0.000000 0.000000 0.000000 0.000000 0.000000 0.000000 0.000000 0.000000 0.000000 0.000000 0.000000 0.000000 0.000000 0.000000 0.000000 0.000000 0.000000 0.000000 0.000000 0.000000 0.000000 0.000000 0.000000 0.000000 0.000000 0.000000 0.000000 0.000000 0.000000 0.000000 0.000000 0.000000 0.000000 0.000000 0.000000 0.000000 1.578876 1.578876 1.578876 1.576360 1.571812 1.571812 1.571439 1.568808 1.564811 1.564811 1.562821 1.557871 1.559725 1.564811 1.567971 1.580932 1.596817 1.616668 1.617899 1.624093 1.628762 1.622914 1.625506 0.000000 0.000000 0.000000 0.000000 0.000000 0.000000 0.000000 1.815504 1.815504 1.815504 1.815504 1.832129 1.834676 1.841771 1.851283 1.853824 1.863553 1.863660 1.863660 1.863660 1.863660 1.854540 1.853826 1.853826 1.853826 1.853826 1.853826 1.851289 1.845621 1.844095 1.844095 1.841641 1.992183 0.000000 2.116294 2.146640 2.135562 2.135562 2.135562 2.144989 2.158021 0.000000 2.487303 2.658114 2.653513 2.651321 2.651321 2.651321 2.651321 2.651321 2.651321 2.655536 2.658519 2.658556 2.651321 2.655228 2.654845 2.655096 2.655046 2.654959 2.664837 2.671483 2.671483 2.671483 2.671483 2.671483 2.381695 2.381695 2.381695 2.376052 2.365657 2.365657 2.365657 2.453106 2.673548 2.662686 2.671483 2.671483 2.673481 2.659345 2.661925 2.671483 2.673030 2.679688 2.681731 2.690051 2.678540 2.671483 2.670171 2.656726 2.631461 2.631461 2.631461 2.631461 2.631461 2.651654 2.671483 2.671483 2.671483 2.691346 2.691954 2.691954 2.691954 2.691954 2.699692 2.712741 2.712741 2.712741 2.712741 2.702355 2.700430 2.700428 2.693674 2.691954 2.691954 2.691954 2.698290 2.694168 2.691954 2.691954 2.694566 2.691954 2.697572 2.700395 2.700393 2.700392 2.700391 2.700390 2.700389 2.700389 2.700390 2.700391 2.700393 2.700396 2.700399 2.700403 2.700408 2.705998 2.712741 2.707466 2.700444 2.700454 2.700465 2.700478 2.700492 2.700523 2.700541 2.700560 2.700581 2.700603 2.700627 2.700653 2.703442 2.710343 2.702964 2.712741 2.707754 2.680280 2.680322 2.679641 2.671483 2.671949 2.680564 2.680621 2.680680 2.671665 2.671483 2.671483 2.681020 2.681098 2.690491 2.691954 2.691954 2.691954 2.691954 2.684113 2.677290 2.671483 2.671483 2.671483 2.671483 2.671483 2.683132 2.691954 2.691954 2.678308 2.671867 2.683493 2.683664 2.683839 2.684021 2.664045 2.664242 2.664444 2.665780 2.674166 2.690573 2.678571 2.691954 2.691954 2.691954
1.308380 1.308957 0.000000 0.000000 0.000000 0.000000 0.000000 0.000000 0.000000 0.000000 0.000000 0.000000 0.000000 0.000000 0.000000 0.000000 0.000000 0.000000 0.000000 0.000000 0.000000 0.000000 0.000000 0.000000 0.000000 0.000000 1.408016 1.408016 1.408016 1.413431 1.419110 1.435955 1.459295 1.466404 1.466806 0.000000 1.512142 1.516898 1.517508 1.523381 1.524078 1.524078 1.524078 0.000000 0.000000 0.000000 0.000000 0.000000 1.705275 1.743442 1.750641 1.737933 1.741885 1.743424 1.729825 1.746797 1.752120 0.000000 0.000000 0.000000 0.000000 0.000000 0.000000 0.000000 0.000000 0.000000 0.000000 0.000000 0.000000 0.000000 0.000000 0.000000 0.000000 0.000000 0.000000 0.000000 0.000000 0.000000 0.000000 0.000000 0.000000 0.000000 0.000000 0.000000 0.000000 0.000000 0.000000 0.000000 0.000000 0.000000 0.000000 0.000000 0.000000 0.000000 0.000000 0.000000 0.000000 0.000000 0.000000 0.000000 0.000000 0.000000 0.000000 0.000000 0.000000 0.000000 0.000000 1.578876 1.576714 1.573008 1.572603 1.571812 1.571812 1.571812 1.569641 1.564811 1.564811 1.562842 1.557871 1.558237 1.560683 1.566513 1.577935 1.596849 1.610593 1.615172 1.617981 1.628784 1.622633 0.000000 0.000000 0.000000 0.000000 0.000000 0.000000 0.000000 0.000000 1.799301 1.799328 1.799943 1.815504 1.825023 1.827935 1.844132 1.846847 1.856535 1.863544 1.863660 1.863660 1.863660 1.863660 1.860984 1.854419 1.853826 1.853826 1.853826 1.853826 1.853826 1.851250 1.850736 1.850712 1.845358 0.000000 2.075756 2.144347 2.147655 2.137698 2.135562 2.135562 2.138747 0.000000 2.358153 2.590490 2.651321 2.651321 2.651321 2.638470 2.646594 2.651321 2.643541 2.646211 2.651321 2.651321 2.651321 2.651321 2.651321 2.651321 2.651321 2.651321 2.651321 2.654946 2.659002 2.659032 2.659060 2.659116 2.659143 2.381695 2.381695 2.381695 2.376071 2.365657 2.365657 2.365657 2.447655 2.657017 2.653579 2.659410 2.659427 2.659445 2.651321 2.653046 2.661895 2.671483 2.671483 2.672863 2.678551 2.671483 2.659588 2.657417 2.638829 2.631461 2.631461 2.631461 2.631461 2.631461 2.639991 2.659654 2.659657 2.659661 2.679348 2.679955 2.691320 2.691954 2.691954 2.699709 2.711391 2.712741 2.712741 2.702322 2.693300 2.691954 2.691954 2.682384 2.679949 2.679947 2.679944 2.688936 2.683080 2.679937 2.688506 2.691954 2.691954 2.691954 2.691954 2.691954 2.691954 2.691954 2.691954 2.691954 2.691954 2.691954 2.691954 2.691954 2.691954 2.691954 2.686182 2.685540 2.695851 2.700571 2.696889 2.691954 2.691954 2.691954 2.691954 2.687836 2.680073 2.683839 2.691954 2.691954 2.691954 2.691954 2.691954 2.700876 2.699135 2.693585 2.700982 2.696549 2.671483 2.671483 2.671483 2.671483 2.671483 2.671483 2.671483 2.671483 2.671483 2.671483 2.671483 2.661961 2.660995 2.678538 2.681476 2.681567 2.681662 2.681760 2.674025 2.674555 2.671483 2.671483 2.671483 2.671483 2.671483 2.677877 2.682981 2.687737 2.664788 2.651806 2.666658 2.668534 2.663774 2.663957 2.646056 2.652831 2.657985 2.659885 2.673944 2.691419 2.686333 2.691865 2.686638 2.687051
1.308380 1.308956 0.000000 0.000000 0.000000 0.000000 0.000000 0.000000 0.000000 0.000000 0.000000 1.353757 1.353757 1.353757 1.353757 0.000000 0.000000 0.000000 0.000000 0.000000 0.000000 0.000000 0.000000 0.000000 0.000000 0.000000 0.000000 1.408016 1.408033 1.413427 1.419157 1.446993 1.465671 1.466805 1.466806 0.000000 0.000000 0.000000 1.524025 1.524072 1.524078 1.524078 1.524078 0.000000 0.000000 0.000000 0.000000 1.703062 1.742579 1.743424 1.743598 1.736370 1.741844 1.743424 1.729704 1.740082 1.750326 0.000000 0.000000 0.000000 0.000000 0.000000 0.000000 0.000000 0.000000 0.000000 0.000000 0.000000 0.000000 0.000000 0.000000 0.000000 0.000000 0.000000 0.000000 0.000000 0.000000 0.000000 0.000000 0.000000 0.000000 0.000000 0.000000 0.000000 0.000000 0.000000 0.000000 0.000000 0.000000 0.000000 0.000000 0.000000 0.000000 0.000000 0.000000 0.000000 0.000000 0.000000 0.000000 0.000000 0.000000 0.000000 0.000000 0.000000 0.000000 0.000000 1.578876 1.578876 1.578421 1.575543 1.571812 1.571812 1.571812 1.571812 1.569682 1.564811 1.564811 1.562883 1.557871 1.557871 1.558242 1.559736 1.575659 1.578539 1.580237 1.607702 0.000000 0.000000 0.000000 0.000000 0.000000 0.000000 0.000000 0.000000 0.000000 1.778734 1.779549 1.788045 1.790712 1.797084 1.815891 1.825148 1.832017 1.844172 1.851017 1.860695 1.863605 1.863660 1.863660 1.863660 1.857317 1.854071 1.853826 1.853826 1.853826 1.853826 1.853826 1.853826 1.853826 1.853826 1.845900 1.828678 0.000000 2.074764 2.148624 2.148624 2.145263 2.144123 2.137864 2.141665 2.157934 0.000000 2.479776 2.642620 2.633811 2.631461 2.623380 2.631461 2.631461 2.631461 2.631461 2.631461 2.631461 2.631461 2.631461 2.631461 2.631461 2.631461 2.641236 2.651321 2.651321 2.651321 2.651321 2.651321 2.651321 2.651321 2.375716 2.381695 2.378227 2.369847 2.365657 2.365657 2.365657 2.445318 2.651321 2.651321 2.651321 2.651321 2.651321 2.639624 2.642093 2.652975 2.659649 2.659662 2.661617 2.671483 2.669800 2.649932 2.638842 2.631461 2.631461 2.631461 2.631461 2.630883 2.620534 2.631595 2.639846 2.651243 2.651321 2.659535 2.670999 2.679628 2.680084 2.691051 2.691954 2.710431 2.712741 2.702292 2.693218 2.691954 2.691954 2.680079 2.673226 2.671483 2.671483 2.671483 2.677914 2.673728 2.671483 2.677605 2.691954 2.691954 2.691954 2.691954 2.691954 2.684445 2.680053 2.687247 2.691954 2.691954 2.685329 2.686510 2.691954 2.691954 2.685940 2.675956 2.675491 2.680102 0.000000 0.000000 2.680132 2.680145 2.680158 2.684545 2.677197 2.671483 2.674244 2.680268 2.683625 2.688778 2.683319 2.691954 2.691954 2.691954 2.691954 2.691954 2.687220 2.660328 2.660373 2.660420 2.660522 2.661081 2.671170 2.660809 2.671401 2.661101 2.660892 2.660964 2.652329 2.642437 2.658392 2.661375 2.661468 2.669425 2.663903 2.661769 2.661989 2.662106 2.668298 2.671483 2.666005 2.662618 2.667613 2.671483 2.673793 2.648907 2.639808 2.656180 2.659288 2.648869 2.640837 2.634626 2.650348 2.670342 2.666171 2.673057 2.685017 2.672288 2.691882 2.671483 2.671483
1.308380 1.308955 0.000000 0.000000 0.000000 0.000000 0.000000 0.000000 0.000000 0.000000 0.000000 1.353759 1.353778 1.353757 1.353757 0.000000 0.000000 0.000000 0.000000 0.000000 0.000000 0.000000 0.000000 0.000000 0.000000 0.000000 0.000000 1.408016 1.413416 1.413680 1.457866 1.460574 1.466414 1.466806 1.472428 0.000000 1.514063 1.523440 1.524078 1.524078 1.524078 0.000000 0.000000 0.000000 0.000000 0.000000 0.000000 1.706767 1.736416 1.735096 1.741985 1.736344 1.735076 1.741843 1.743424 1.742841 1.752034 0.000000 0.000000 0.000000 0.000000 0.000000 0.000000 0.000000 0.000000 0.000000 0.000000 0.000000 0.000000 0.000000 0.000000 0.000000 0.000000 0.000000 0.000000 0.000000 0.000000 0.000000 0.000000 0.000000 0.000000 0.000000 0.000000 0.000000 0.000000 0.000000 0.000000 0.000000 0.000000 0.000000 0.000000 0.000000 0.000000 0.000000 0.000000 0.000000 0.000000 0.000000 0.000000 0.000000 0.000000 0.000000 0.000000 0.000000 0.000000 0.000000 1.578876 1.578876 1.576797 1.572674 1.571812 1.571812 1.571812 1.571812 1.569702 1.564811 1.564811 1.562903 1.557871 1.557871 1.557871 1.557871 1.566432 0.000000 0.000000 0.000000 0.000000 0.000000 0.000000 0.000000 0.000000 0.000000 0.000000 0.000000 0.000000 1.778734 1.779524 1.787786 1.788406 1.796931 1.815865 1.825397 1.841453 1.850974 1.853821 1.863545 1.863660 1.863660 1.863660 1.863660 1.860772 1.860519 1.854449 1.853826 1.853826 1.853826 1.853826 1.853826 1.853826 1.848538 1.844721 0.000000 0.000000 2.081134 2.161846 2.161846 2.158309 2.157083 2.150935 2.148624 2.157906 0.000000 2.471047 2.633782 2.631461 2.623340 2.614460 2.619279 2.626775 2.624130 2.619387 2.619421 2.626296 2.631461 2.631461 2.631461 2.631461 2.631461 2.641206 2.651321 2.651321 2.651321 2.635986 2.634882 2.644407 2.595546 2.371741 2.381695 2.375924 2.365657 2.365657 2.365657 2.365657 2.444801 2.645548 2.631461 2.631461 2.631461 2.628830 2.620189 2.622554 2.631461 2.631461 2.631461 2.632848 2.639951 2.638861 2.631461 2.631461 2.631461 2.631461 2.631461 2.630762 2.619787 2.612218 2.631461 2.631499 2.639858 2.639920 2.650979 2.659557 2.670870 2.671483 2.690391 2.691954 2.699835 2.700816 2.693134 2.691954 2.691954 2.691954 2.671483 2.671483 2.671483 2.671483 2.671483 2.671483 2.662925 2.668300 2.671483 2.680187 2.680186 2.680185 2.680185 2.680184 2.667364 2.659891 2.672142 2.680189 2.680191 2.675346 2.676209 2.686423 2.685859 2.675798 2.665938 2.659940 2.665158 0.000000 0.000000 2.666727 2.659996 2.664418 2.674759 2.667551 2.660083 2.660104 2.660127 2.665916 2.674950 2.665368 2.680534 2.691954 2.689750 2.680676 2.680716 2.676423 2.649916 2.640550 2.640650 2.641351 2.651731 2.660575 2.651393 2.660844 2.651606 2.641578 2.650629 2.651321 2.633977 2.648361 2.651321 2.651321 2.667186 2.663320 2.651321 2.651321 2.651321 2.652747 2.659290 2.650653 2.642837 2.649358 2.655198 2.649824 2.638217 2.636536 2.643934 2.644112 2.637833 2.624727 2.625119 2.631948 2.656957 2.648174 2.665831 2.666069 2.666870 2.686776 2.667462 2.663767
0.000000 0.000000 0.000000 0.000000 0.000000 0.000000 0.000000 0.000000 0.000000 0.000000 0.000000 1.354058 1.358691 1.353757 1.353757 0.000000 0.000000 0.000000 0.000000 0.000000 0.000000 0.000000 0.000000 0.000000 0.000000 0.000000 0.000000 1.408016 1.413448 1.413682 1.458167 1.460707 1.466416 1.472405 1.472946 1.518827 1.517963 1.523315 1.524078 1.524078 1.524078 0.000000 0.000000 0.000000 0.000000 0.000000 1.693521 1.733661 1.734872 1.734815 1.735129 1.734886 1.734815 1.741765 1.743424 1.743424 0.000000 0.000000 0.000000 0.000000 0.000000 0.000000 0.000000 0.000000 0.000000 0.000000 0.000000 0.000000 0.000000 0.000000 0.000000 0.000000 0.000000 0.000000 0.000000 0.000000 0.000000 0.000000 0.000000 0.000000 0.000000 0.000000 0.000000 0.000000 0.000000 0.000000 0.000000 0.000000 0.000000 0.000000 0.000000 0.000000 0.000000 0.000000 0.000000 0.000000 0.000000 0.000000 0.000000 0.000000 0.000000 0.000000 0.000000 0.000000 0.000000 0.000000 1.584644 1.582515 1.578380 1.575488 1.571812 1.571812 1.571812 1.571812 1.569722 1.564811 1.564811 1.564387 1.563229 1.563209 1.563189 1.563169 1.594035 0.000000 0.000000 0.000000 0.000000 0.000000 0.000000 0.000000 0.000000 0.000000 0.000000 0.000000 0.000000 1.778734 1.779499 1.787786 1.788381 1.798019 1.816913 1.838672 1.850939 1.853826 1.853826 1.863518 1.863660 1.863660 1.863660 1.863660 1.863660 1.863660 1.860725 1.854524 1.853826 1.853826 1.853826 1.853826 1.853826 1.845842 1.844095 0.000000 0.000000 2.132133 2.161846 2.161846 2.161846 2.161846 2.152270 2.148624 2.152065 2.251167 0.000000 2.507205 2.619274 2.604169 2.600000 2.600036 2.611931 2.607780 2.607079 2.611896 2.616273 2.619629 2.619662 2.625868 2.631461 2.631461 2.635401 2.639526 2.645056 2.645938 2.631461 2.631461 2.634847 2.551876 2.408166 2.391954 2.378375 2.370077 2.365657 2.365657 2.365657 2.444553 2.645566 2.631461 2.631461 2.631461 2.626904 2.611896 2.613653 2.622529 2.629385 2.620362 2.622179 2.631461 2.631461 2.631461 2.630278 2.621471 2.631461 2.631461 2.630249 2.611896 2.612224 2.612029 2.620426 2.611957 2.631094 2.631461 2.631461 2.639704 2.640168 2.658633 2.670359 2.679465 2.680459 2.680458 2.680458 2.680457 2.672988 2.662317 2.653110 2.651321 2.651321 2.651321 2.651321 2.651321 2.651321 2.651321 2.657408 2.667827 2.671483 2.671483 2.664110 2.654533 2.651321 2.656582 2.660027 2.660029 2.660033 2.660038 2.670765 2.675752 2.665704 2.655876 2.651321 2.655279 2.660101 2.660113 2.656493 2.651321 2.659035 2.667447 2.657162 2.651321 2.651321 2.651321 2.653869 2.657902 2.653615 2.660397 2.680768 2.676879 2.660543 2.660585 2.657737 2.639501 2.631461 2.631461 2.632010 2.640943 2.641004 2.641113 2.651175 2.641539 2.631972 2.641435 2.641518 2.632794 2.648270 2.651321 2.651321 2.659682 2.647412 2.642315 2.642433 2.642555 2.635444 2.638481 2.636109 2.626842 2.623494 2.623796 2.623954 2.624117 2.627188 2.631461 2.629095 2.620726 2.611896 2.611896 2.614478 2.626716 2.633855 2.651776 2.656085 2.651551 2.663140 2.648912 2.633663
0.000000 0.000000 0.000000 0.000000 0.000000 0.000000 0.000000 0.000000 0.000000 0.000000 0.000000 1.354058 1.358721 1.353757 1.353968 0.000000 0.000000 0.000000 0.000000 0.000000 0.000000 0.000000 0.000000 0.000000 0.000000 0.000000 0.000000 1.413536 1.424365 1.424833 1.464340 1.466625 1.472369 1.472942 1.472956 1.513957 1.517514 1.524078 1.524078 1.524078 1.524078 0.000000 0.000000 0.000000 0.000000 0.000000 1.707136 1.742991 1.736144 1.734815 1.734815 1.721677 1.731793 1.741751 1.743424 0.000000 0.000000 0.000000 0.000000 0.000000 0.000000 0.000000 0.000000 0.000000 0.000000 0.000000 0.000000 0.000000 0.000000 0.000000 0.000000 0.000000 0.000000 0.000000 0.000000 0.000000 0.000000 0.000000 0.000000 0.000000 0.000000 0.000000 0.000000 0.000000 0.000000 0.000000 0.000000 0.000000 0.000000 0.000000 0.000000 0.000000 0.000000 0.000000 0.000000 0.000000 0.000000 0.000000 0.000000 0.000000 0.000000 0.000000 0.000000 0.000000 0.000000 0.000000 1.586004 1.585478 1.580514 1.574703 1.575495 1.571812 1.571812 1.571812 1.569742 1.564811 1.564811 1.564811 1.564811 1.563484 1.559545 1.559565 1.590424 1.718498 1.760902 0.000000 0.000000 0.000000 0.000000 0.000000 0.000000 1.769773 1.770850 1.778734 1.778734 1.778734 1.779474 1.788252 1.794390 1.798387 1.825504 1.844318 1.853826 1.853826 1.853826 1.863492 1.863660 1.863660 1.863660 1.863660 1.863660 1.863660 1.863660 1.854895 1.853826 1.853826 1.853826 1.848524 1.847529 1.844725 1.839101 0.000000 2.086836 2.161846 2.161846 2.161846 2.161846 2.161846 2.158244 2.156825 2.151076 2.145171 2.432902 0.000000 2.600033 2.595275 2.592620 2.592620 2.597259 2.595660 2.597131 2.600313 2.606887 2.611896 2.611896 2.622093 2.631461 2.631461 2.631461 2.631461 2.635300 2.635945 2.626514 2.624891 2.599105 2.507685 2.417695 2.397898 2.379242 2.371638 2.365657 2.365657 2.365657 2.444312 2.645583 2.631461 2.631461 2.631461 2.626917 2.611896 2.611896 2.613579 2.618877 2.611896 2.613294 2.620504 2.620513 2.620529 2.619615 2.612715 2.621459 2.631461 2.630260 2.611896 2.611896 2.611896 2.611896 2.611896 2.620423 2.620588 2.631007 2.631461 2.629508 2.639329 2.658293 2.660283 2.660283 2.660282 2.660282 2.669723 2.671483 2.653030 2.642517 2.640282 2.640281 2.640281 2.640280 2.640279 2.640278 2.640278 2.640278 2.653810 2.646916 2.640280 2.640281 2.634720 2.631461 2.640291 2.635162 2.636472 2.635388 2.631461 2.636144 2.640325 2.635977 2.631461 2.626437 2.629526 2.640389 2.640404 2.640419 2.640436 2.640455 2.651321 2.647573 2.638670 2.634773 2.638947 2.631461 2.631461 2.631461 2.653373 2.658406 2.648178 2.640713 2.640756 2.637998 2.621146 2.621195 2.631461 2.631461 2.631840 2.641319 2.631480 2.650965 2.632186 2.631461 2.631461 2.631461 2.631461 2.640258 2.642004 2.642105 2.635166 2.625607 2.622818 2.622938 2.623061 2.623190 2.623322 2.628153 2.620439 2.611896 2.611896 2.611896 2.611896 2.616900 2.624741 2.620522 2.611896 2.611896 2.611896 2.611896 2.613942 2.629100 2.652448 2.665957 2.646895 2.628783 2.631063 2.631461
0.000000 0.000000 0.000000 0.000000 0.000000 0.000000 0.000000 0.000000 0.000000 0.000000 0.000000 1.358875 1.358988 1.358863 1.358865 1.358994 0.000000 0.000000 0.000000 0.000000 0.000000 0.000000 0.000000 0.000000 0.000000 0.000000 0.000000 1.413682 1.424645 1.457644 1.466397 1.466806 1.472551 1.472956 1.478434 1.514222 1.523224 1.524078 1.524078 1.524078 1.524078 1.524078 1.524078 1.529818 1.525329 1.529795 0.000000 1.735330 1.728213 1.726825 1.733398 1.720928 1.725153 1.727352 1.714980 0.000000 0.000000 0.000000 0.000000 0.000000 0.000000 0.000000 0.000000 0.000000 0.000000 0.000000 0.000000 0.000000 0.000000 0.000000 0.000000 0.000000 0.000000 0.000000 0.000000 0.000000 0.000000 0.000000 0.000000 0.000000 0.000000 0.000000 0.000000 0.000000 0.000000 0.000000 0.000000 0.000000 0.000000 0.000000 0.000000 0.000000 0.000000 0.000000 0.000000 0.000000 0.000000 0.000000 0.000000 0.000000 0.000000 0.000000 0.000000 0.000000 0.000000 0.000000 1.586004 1.586004 1.582948 1.575961 1.572843 1.571812 1.571812 1.571812 1.571331 1.568632 1.564811 1.564811 1.564811 1.563087 1.557871 0.000000 1.598509 1.760902 1.760902 1.760902 0.000000 0.000000 0.000000 0.000000 0.000000 1.776173 1.776453 1.779427 1.785124 1.785099 1.785794 1.794804 1.804123 1.816687 1.825171 0.000000 1.853826 0.000000 0.000000 0.000000 0.000000 0.000000 0.000000 1.869765 1.864187 0.000000 0.000000 1.860611 1.854602 1.853826 1.853826 1.845683 1.844095 1.844095 1.841244 0.000000 2.092958 2.163662 2.161846 2.161846 2.161846 2.161846 2.161846 2.161846 2.158255 2.317548 0.000000 2.518806 2.588735 2.581142 2.581177 2.588283 2.592620 2.585815 2.587947 2.592620 2.597063 2.600513 2.611896 0.000000 2.620028 2.620056 2.625626 2.631461 2.631461 2.631461 2.618121 2.595049 2.555227 2.489245 2.424825 2.402373 2.381695 2.376173 2.365657 2.365657 2.365657 2.444077 2.645599 2.631461 2.631461 2.631461 2.626931 2.611896 2.611896 2.611896 2.609908 2.601201 2.601211 2.601220 2.601228 2.601244 2.602375 2.611896 2.612625 2.620674 2.620145 2.611896 2.611896 2.611896 2.611896 2.611896 2.611896 2.611896 2.630640 2.621276 2.612563 2.629739 2.639521 2.640408 2.640408 2.640408 2.640407 2.657254 2.660402 2.642487 2.633271 2.631461 2.631461 2.631461 2.631461 2.631461 2.631461 2.631461 2.631461 2.637520 2.634438 2.631461 2.631461 2.631461 2.631461 2.631461 2.631461 2.631461 2.631461 2.631461 2.631461 2.631461 2.626214 2.620791 2.616665 2.615906 2.625464 2.631461 2.627111 2.620881 2.624921 2.640644 2.640668 2.637692 2.637579 2.645434 2.631461 2.631461 2.631461 2.631461 2.631461 2.629565 2.621345 2.621392 2.620134 2.611896 2.611896 2.631461 2.631983 2.641389 2.641012 2.631486 2.631461 2.612761 2.611896 2.611896 2.611896 2.611896 2.611896 2.611896 2.605174 2.592620 2.592620 2.592620 2.587355 2.589914 2.592620 2.599637 2.604510 2.604658 2.611896 2.611896 2.611896 2.609104 2.607895 2.611896 2.611896 2.611896 2.606336 2.607614 2.611896 2.611896 2.615241 2.646742 2.646468 2.627659 2.611896 2.626190 2.628541
0.000000 0.000000 0.000000 0.000000 0.000000 0.000000 0.000000 0.000000 0.000000 0.000000 0.000000 1.358994 1.358994 1.358994 1.358994 1.359164 0.000000 0.000000 0.000000 0.000000 1.396852 1.402395 1.407955 1.413588 0.000000 0.000000 0.000000 1.413905 1.424634 1.464312 1.466786 1.472573 1.478388 1.478411 0.000000 0.000000 0.000000 0.000000 0.000000 0.000000 0.000000 1.524078 1.524078 1.529809 1.530342 1.530652 1.699834 1.734815 1.734303 1.727647 1.726290 1.719413 1.717848 1.709489 0.000000 0.000000 0.000000 0.000000 0.000000 0.000000 0.000000 0.000000 0.000000 0.000000 0.000000 0.000000 0.000000 0.000000 0.000000 0.000000 0.000000 0.000000 0.000000 0.000000 0.000000 0.000000 0.000000 0.000000 0.000000 0.000000 0.000000 0.000000 0.000000 0.000000 0.000000 0.000000 0.000000 0.000000 0.000000 0.000000 0.000000 0.000000 0.000000 0.000000 0.000000 0.000000 0.000000 0.000000 0.000000 0.000000 0.000000 0.000000 0.000000 0.000000 0.000000 1.586004 1.586004 1.586004 1.583507 1.576461 1.571812 1.571812 1.571812 1.571812 1.571812 1.571327 1.570062 1.568665 1.564811 1.563106 1.552797 0.000000 1.592661 1.755808 1.759621 1.754170 1.753703 1.760902 1.760902 1.760902 1.770970 1.778734 1.779464 1.785356 1.787786 1.787786 1.790904 1.828536 1.819736 1.831450 0.000000 0.000000 0.000000 0.000000 0.000000 0.000000 0.000000 0.000000 0.000000 0.000000 0.000000 0.000000 0.000000 0.000000 0.000000 0.000000 1.853826 1.845705 1.844095 1.849048 1.845293 0.000000 2.090606 2.162950 2.161846 2.161846 2.161846 2.161846 2.167666 2.164222 2.156268 0.000000 2.429058 2.576086 2.578647 2.573626 2.573626 2.578402 2.581381 2.576758 2.578204 2.581477 2.587766 2.592620 2.600708 0.000000 0.000000 2.611896 2.615941 2.620245 2.625458 2.626386 2.608318 2.581139 2.545940 2.508898 2.424843 2.402406 2.381695 2.376189 2.365657 2.365657 2.365657 2.443849 2.645616 2.631461 2.631461 2.628726 2.618651 2.609570 2.601289 2.601300 2.599702 2.592620 2.592620 2.592620 2.592620 2.592620 2.594643 2.611896 2.611896 2.611896 2.611896 2.611896 2.611896 2.611896 2.611856 2.601490 2.601413 2.611577 2.620450 2.612369 2.611896 2.620044 2.630405 2.631461 2.631461 2.631461 2.631461 2.639104 2.640525 2.633190 2.631461 2.623101 2.620824 2.620824 2.620824 2.620824 2.628541 2.631461 2.631461 2.631461 2.624368 2.627774 2.624630 2.620837 2.620841 2.627125 2.631461 2.631461 2.625577 2.620876 2.620884 2.620894 2.616491 2.611896 2.607086 2.601545 2.609989 2.620987 2.617276 2.611896 2.615371 2.631461 2.631461 2.631461 2.634356 2.638129 2.631461 2.631461 2.631461 2.629277 2.621423 2.619704 2.611896 2.611896 2.611896 2.611896 2.611896 2.621846 2.622372 2.632401 2.641588 2.622316 2.622198 2.612399 2.611896 2.611896 2.611896 2.611896 2.604855 2.603497 2.594990 2.584673 2.584791 2.584913 2.577422 2.581024 2.585306 2.585447 2.585592 2.589441 2.592620 2.592620 2.592620 2.592620 2.592620 2.597169 2.606322 2.606524 2.596665 2.592620 2.594727 2.607627 2.607867 2.608692 2.624306 2.608899 2.609176 2.607404 2.609333
0.000000 0.000000 0.000000 0.000000 0.000000 0.000000 0.000000 0.000000 0.000000 0.000000 0.000000 1.358994 1.358994 1.358994 1.359187 1.363991 0.000000 0.000000 0.000000 0.000000 1.396848 1.402393 1.413271 1.413676 0.000000 0.000000 0.000000 1.419037 1.424870 1.464601 1.466806 1.472567 1.478730 1.479158 0.000000 0.000000 0.000000 0.000000 0.000000 0.000000 0.000000 1.530650 1.530719 1.535994 1.536841 1.542560 1.701670 1.734815 1.734815 1.727779 1.726290 1.719427 1.717848 1.709489 1.709489 0.000000 0.000000 0.000000 0.000000 0.000000 0.000000 0.000000 0.000000 0.000000 0.000000 0.000000 0.000000 0.000000 0.000000 0.000000 0.000000 0.000000 1.693012 1.693012 0.000000 0.000000 0.000000 0.000000 0.000000 0.000000 0.000000 0.000000 0.000000 0.000000 0.000000 0.000000 0.000000 0.000000 0.000000 0.000000 0.000000 0.000000 0.000000 0.000000 0.000000 0.000000 0.000000 0.000000 0.000000 0.000000 0.000000 0.000000 0.000000 0.000000 0.000000 1.593197 1.588016 1.589565 1.583526 1.576481 1.571812 1.571812 1.571812 1.573422 1.571812 1.571812 1.571812 1.571335 1.568664 1.564361 1.562499 1.587478 1.699729 1.752619 1.754090 1.752120 1.752565 1.755700 1.759905 1.755624 1.775567 1.773234 0.000000 0.000000 1.787786 1.790403 1.821264 1.843699 1.838068 1.840966 0.000000 0.000000 0.000000 0.000000 0.000000 0.000000 0.000000 0.000000 0.000000 0.000000 0.000000 1.863660 1.863660 1.858120 1.854280 0.000000 1.853826 1.845727 1.844095 1.851974 1.850841 1.936702 0.000000 2.114173 2.161846 2.161846 2.161846 2.167684 2.173701 2.165791 2.158139 0.000000 2.417919 2.562485 2.569849 2.573626 2.566701 2.569416 2.573626 2.573626 2.573626 2.573626 2.578129 2.581670 2.592620 0.000000 0.000000 2.600924 2.606252 2.606704 2.609954 2.601049 2.592818 2.578473 2.563458 2.512573 2.415621 2.396667 2.381695 2.379227 2.371547 2.365657 2.368345 2.409312 2.530852 2.620739 2.620753 2.618531 2.601385 2.599481 2.590479 2.582296 2.582306 2.582316 2.582325 0.000000 2.583657 2.592620 2.593551 2.602465 2.611032 2.602241 2.611896 2.611896 2.601789 2.611896 2.611825 2.592767 2.592620 2.611305 2.611896 2.611896 2.611896 2.611896 2.620047 2.630296 2.622221 2.620944 2.620944 2.629810 2.622827 2.620944 2.620943 2.613833 2.611896 2.611896 2.611896 2.611896 2.618462 2.620947 2.620949 2.620951 2.614913 2.617813 2.615136 2.611896 2.611896 2.617265 2.620984 2.620991 2.615947 2.611896 2.606450 2.606903 2.611896 2.607013 2.597476 2.592620 2.600974 2.611896 2.611896 2.611896 2.611896 2.624816 2.631461 2.631461 2.631461 2.628506 2.621391 2.621427 2.621464 2.619476 2.611896 2.611896 2.611896 2.611896 2.610643 2.602423 2.602481 2.602605 2.602671 2.603203 2.622139 2.603155 2.602966 2.603047 2.603132 2.611896 2.611896 2.604812 2.594567 2.592620 2.586432 2.568055 2.566139 2.571295 2.573626 2.573626 2.573626 2.573626 2.573626 2.580173 2.586321 2.589226 2.592620 2.592620 2.592620 2.592620 2.592620 2.587833 2.588049 2.588272 2.588500 2.588736 2.588758 2.585925 2.589442 2.589747 2.588276 2.576147 2.587219
0.000000 0.000000 0.000000 0.000000 0.000000 0.000000 0.000000 0.000000 0.000000 0.000000 0.000000 1.358994 1.358994 1.359210 1.363948 1.364434 0.000000 0.000000 0.000000 0.000000 1.396844 1.402389 1.413213 1.413682 0.000000 0.000000 0.000000 1.419394 1.424882 1.464559 1.466806 1.472561 1.478723 1.484469 0.000000 0.000000 0.000000 0.000000 0.000000 0.000000 0.000000 1.529940 1.530719 1.531260 1.531357 1.537044 1.700310 1.734815 1.734815 1.727792 1.726290 1.719440 1.717848 1.703650 1.701429 1.694813 0.000000 0.000000 0.000000 1.693012 1.693012 1.693012 1.693012 1.693012 0.000000 0.000000 0.000000 1.693012 1.693012 0.000000 0.000000 0.000000 1.693012 0.000000 0.000000 0.000000 0.000000 0.000000 0.000000 0.000000 0.000000 0.000000 0.000000 0.000000 0.000000 0.000000 0.000000 0.000000 0.000000 0.000000 0.000000 0.000000 0.000000 0.000000 0.000000 0.000000 0.000000 0.000000 0.000000 0.000000 0.000000 0.000000 0.000000 0.000000 0.000000 1.593197 1.588572 1.592586 1.587101 1.576500 1.571812 1.571812 1.571812 1.572355 1.571812 1.571812 1.570443 1.566696 1.564811 1.564811 1.591912 1.700926 1.743955 1.747210 1.752120 1.752120 1.752120 1.753550 1.760487 1.758626 1.764246 1.782481 0.000000 0.000000 1.807143 1.814553 1.835148 1.844095 1.844095 1.844367 0.000000 0.000000 0.000000 0.000000 0.000000 0.000000 0.000000 0.000000 0.000000 0.000000 0.000000 0.000000 1.863660 1.860427 1.854617 0.000000 1.853826 1.845749 1.848979 1.853099 1.853826 1.853826 0.000000 2.084506 2.161846 2.161846 2.161846 2.171515 2.175232 2.165817 2.161846 0.000000 2.414682 2.554909 2.567213 2.573626 2.568664 2.570567 2.573626 2.573626 2.573626 2.573626 2.573626 2.573626 2.592620 0.000000 0.000000 2.592620 2.591522 2.591452 2.596545 2.582058 2.578449 2.569287 2.550777 2.503888 2.417330 2.400975 2.387427 2.381695 2.379276 2.374339 2.379255 2.390469 2.446853 2.601453 2.601467 2.599362 2.590275 2.582392 2.580590 2.573626 2.573626 2.573626 2.573626 0.000000 2.574749 2.583645 2.592620 2.593460 2.600867 2.593259 2.601621 2.602123 2.603050 2.611896 2.611828 2.592769 2.602607 2.611618 2.611896 2.602190 2.601647 2.601649 2.610879 2.620046 2.604000 2.601650 2.610406 2.619623 2.613538 2.603604 2.609810 2.611896 2.611896 2.611896 2.611896 2.611896 2.611896 2.611896 2.611896 2.611896 2.611896 2.611896 2.611896 2.611896 2.611896 2.611896 2.611896 2.611896 2.611896 2.606387 2.596917 2.602506 2.606943 2.597425 2.592620 2.588163 2.590981 2.601857 2.601877 2.601899 2.605686 2.615205 2.621418 2.621448 2.621480 2.615854 2.602131 2.602168 2.602207 2.602292 2.602337 2.602385 2.602435 2.602488 2.601266 2.592620 2.592620 2.592104 2.583369 2.575393 2.594159 2.584121 2.584016 2.592130 2.602365 2.603522 2.603620 2.594405 2.592620 2.592620 2.577935 2.560022 2.554909 2.567556 2.573626 2.573626 2.573626 2.573626 2.573626 2.573626 2.573626 2.579360 2.586943 2.587127 2.587318 2.587514 2.587717 2.572649 2.569429 2.569654 2.570329 2.573333 2.569628 2.555074 2.570441 2.571140 2.557319 2.568804 2.572276
0.000000 0.000000 0.000000 0.000000 0.000000 0.000000 0.000000 0.000000 0.000000 0.000000 0.000000 1.359260 1.363891 1.363905 1.364456 1.369210 0.000000 0.000000 0.000000 0.000000 1.402002 1.412772 1.413675 1.418831 0.000000 0.000000 0.000000 0.000000 0.000000 0.000000 0.000000 0.000000 1.479118 1.484931 1.509369 0.000000 0.000000 0.000000 0.000000 0.000000 0.000000 0.000000 0.000000 1.524767 1.524776 1.530405 1.698698 0.000000 1.727235 1.726461 1.726290 1.719453 1.717848 1.702939 1.701211 1.694826 1.693012 0.000000 1.693012 1.693012 1.693012 1.693012 1.693012 1.693012 1.693012 0.000000 0.000000 1.686090 1.690592 1.693012 0.000000 0.000000 0.000000 0.000000 0.000000 0.000000 0.000000 0.000000 0.000000 0.000000 0.000000 0.000000 0.000000 0.000000 0.000000 0.000000 0.000000 0.000000 0.000000 0.000000 0.000000 0.000000 0.000000 0.000000 0.000000 0.000000 0.000000 0.000000 0.000000 0.000000 0.000000 0.000000 0.000000 0.000000 0.000000 1.593197 1.592006 1.593197 1.588321 1.578259 1.576987 1.576968 1.575383 1.573894 1.575476 1.571812 1.571812 1.571302 1.569770 1.595664 1.698904 1.742116 1.738644 1.743945 1.746084 1.746107 1.747146 1.752562 1.754899 1.756619 1.770914 0.000000 1.801649 1.815504 1.816305 1.824935 1.825562 1.834465 1.834757 1.838112 0.000000 0.000000 0.000000 0.000000 0.000000 0.000000 0.000000 0.000000 0.000000 0.000000 0.000000 0.000000 1.863660 1.863660 1.855113 1.853826 1.853826 1.850669 1.853121 1.858608 1.855031 1.858450 0.000000 2.085476 2.161846 2.161846 2.161846 2.171463 2.175232 2.165842 2.304267 2.411039 2.493851 2.554909 2.554909 2.554909 2.554909 2.554909 2.554909 2.554909 2.563009 2.563038 2.568964 2.573626 0.000000 0.000000 2.582040 2.582065 2.577997 2.577624 2.582138 2.573626 2.569227 2.559847 2.532501 2.488967 2.430593 2.408453 2.392235 2.381695 2.381695 2.381695 2.389301 2.406744 2.454059 2.582448 2.585107 2.592620 2.588270 2.573626 2.571575 2.563681 2.563691 2.563699 2.563707 0.000000 2.573626 2.574661 2.582588 2.583528 2.591793 2.583312 2.592620 2.593061 2.601743 2.601748 2.601720 2.592692 2.601579 2.601757 2.601759 2.592620 2.592620 2.592620 2.600856 2.610774 2.594954 2.592620 2.609085 2.603345 2.601765 2.594365 2.599905 2.601767 2.601768 2.601769 2.601770 2.601771 2.594595 2.591737 2.598661 2.601783 2.601787 2.601791 2.608263 2.611896 2.611896 2.605928 2.607645 2.606194 2.601846 2.591489 2.582739 2.592550 2.597371 2.587951 2.582810 2.578707 2.577613 2.586948 2.588666 2.586701 2.596174 2.602122 2.605391 2.608796 2.602216 2.596710 2.583153 2.583192 2.583275 2.583319 2.583366 2.585034 2.592620 2.592620 2.591484 2.583637 2.583763 2.583280 2.572962 2.555076 2.565154 2.565260 2.565341 2.583124 2.584481 2.591622 2.592620 2.592620 2.592620 2.586608 2.576309 2.565256 2.561871 2.569695 2.573626 2.573626 2.569777 2.570889 2.570287 2.567617 2.570544 2.571269 2.568309 2.568496 2.568688 2.567435 2.565813 2.566442 2.554909 2.554909 2.556888 2.572295 2.554909 2.554909 2.555077 2.554909 2.554909 2.554909 2.555638
0.000000 0.000000 0.000000 0.000000 0.000000 0.000000 0.000000 0.000000 0.000000 0.000000 0.000000 1.363868 1.364272 1.364479 1.369167 1.369744 0.000000 0.000000 0.000000 0.000000 0.000000 0.000000 0.000000 0.000000 0.000000 0.000000 0.000000 0.000000 0.000000 0.000000 0.000000 0.000000 1.489646 1.496306 1.515133 1.517434 1.523447 1.524713 0.000000 0.000000 0.000000 0.000000 1.524986 1.524078 1.518907 0.000000 1.695898 1.727714 1.726290 1.720208 1.724908 1.719466 1.711994 1.702952 1.701211 1.694840 1.693012 1.693012 0.000000 1.693012 1.687880 1.686076 1.686091 1.686106 1.685290 1.684892 1.684892 1.684892 1.685777 1.684892 1.684892 1.684892 0.000000 0.000000 0.000000 0.000000 0.000000 0.000000 0.000000 0.000000 0.000000 0.000000 0.000000 0.000000 0.000000 0.000000 0.000000 0.000000 0.000000 0.000000 0.000000 0.000000 0.000000 0.000000 0.000000 0.000000 0.000000 0.000000 0.000000 0.000000 0.000000 0.000000 0.000000 0.000000 1.593197 1.593197 1.593197 1.593197 1.590121 1.582354 1.578876 1.578876 1.576739 1.573875 1.573286 1.571812 1.571812 1.570582 1.566902 1.603286 1.737432 1.736891 1.735358 1.738652 1.743424 1.743424 1.744874 1.753055 1.758028 1.760463 1.775754 0.000000 1.812650 1.815504 1.816281 1.824935 1.845757 0.000000 2.217056 2.215472 2.227104 2.500356 0.000000 0.000000 0.000000 0.000000 0.000000 0.000000 0.000000 0.000000 0.000000 0.000000 1.869682 1.864412 1.855157 1.853826 1.853826 1.853826 1.853826 1.861704 1.863660 1.863660 0.000000 2.085283 2.161846 2.161846 2.161846 2.165923 2.172978 2.165892 0.000000 2.405500 2.541833 2.544458 2.544490 2.554909 2.554909 2.554909 2.554909 2.554909 2.554909 2.554909 2.554909 2.563222 2.573626 2.568383 2.563450 2.563474 2.559366 2.558943 2.563542 2.554909 2.554909 2.539105 2.503127 2.472608 2.421653 2.402915 2.392249 2.381695 2.381695 2.381695 2.391583 2.414433 2.457409 2.563833 2.566380 2.575879 2.571411 2.561948 2.561961 2.554909 2.554909 2.554909 2.554909 2.557683 2.565077 2.573626 2.573626 2.574470 0.000000 0.000000 2.583307 2.592252 2.582730 2.582876 2.592620 2.592620 2.592620 2.592620 2.592620 2.583270 2.592620 2.592620 2.592620 2.600852 2.593745 2.592620 2.600533 2.592620 2.592620 2.584635 2.590611 2.584867 2.582756 2.582757 2.590146 2.582763 2.576233 2.573626 2.579929 2.582775 2.582779 2.582784 2.595018 2.601925 2.601932 2.596427 2.598010 2.596673 2.592620 2.582336 2.573626 2.578370 2.582912 2.578517 2.573626 2.573626 2.573626 2.577542 2.579221 2.577295 2.592620 2.592620 2.592673 2.589784 2.583235 2.580504 2.573626 2.566702 2.573626 2.573626 2.573626 2.575350 2.583638 2.583694 2.582512 2.565013 2.565079 2.565148 2.564895 2.554909 2.554909 2.554909 2.554909 2.572373 2.573626 2.590153 2.592620 2.586311 2.585111 2.576140 2.573626 2.566706 2.566837 2.566972 2.567111 2.567255 2.560067 2.561970 2.560883 2.552030 2.560857 2.562737 2.554909 2.554909 2.554909 2.550713 2.543260 2.551166 2.551966 2.554909 2.556648 2.572544 2.554909 2.554909 2.558261 2.556386 2.555117 2.554909 2.568751
0.000000 0.000000 0.000000 0.000000 0.000000 0.000000 0.000000 0.000000 0.000000 0.000000 0.000000 1.364272 1.364272 1.364494 1.369591 1.369754 0.000000 0.000000 0.000000 0.000000 0.000000 0.000000 0.000000 0.000000 0.000000 0.000000 0.000000 0.000000 0.000000 0.000000 0.000000 0.000000 1.485177 1.491915 1.510035 1.522274 1.529320 1.530031 0.000000 0.000000 0.000000 0.000000 1.524995 1.524078 1.517495 0.000000 1.695239 1.727726 1.726290 1.725371 1.726077 1.719479 1.711156 1.701457 1.701211 1.694854 1.693012 1.693012 0.000000 1.693012 1.685222 1.684892 1.684892 1.684892 1.684892 1.684892 1.684892 1.684892 1.684892 1.684892 1.684892 1.684892 1.684892 0.000000 0.000000 0.000000 0.000000 0.000000 0.000000 0.000000 0.000000 0.000000 0.000000 0.000000 0.000000 0.000000 0.000000 0.000000 0.000000 0.000000 0.000000 0.000000 0.000000 0.000000 0.000000 0.000000 0.000000 0.000000 0.000000 0.000000 0.000000 0.000000 0.000000 1.600456 1.597181 1.593197 1.593197 1.593197 1.590793 1.585349 1.583968 1.583950 1.581799 1.577404 1.576765 1.575441 1.571812 1.571282 1.594205 1.690722 1.733525 1.728978 1.730169 1.735345 1.737598 1.737620 1.739060 1.748558 1.761762 1.768399 1.779493 1.790109 1.810007 1.815504 1.815769 1.841419 0.000000 2.215389 0.000000 2.500356 2.500356 2.500356 2.500356 2.500356 2.500356 0.000000 0.000000 0.000000 0.000000 0.000000 0.000000 0.000000 1.873600 1.864926 1.860215 1.854687 1.853826 1.853826 1.858469 1.862834 1.863660 1.863660 0.000000 2.084642 2.161846 2.161846 2.161846 2.161846 2.165938 2.290510 0.000000 2.467188 2.533120 2.536462 2.536462 2.551121 2.554909 2.554909 2.554909 2.554909 2.554909 2.554909 2.554909 2.559484 2.563524 2.559120 2.554909 2.554909 2.554909 2.554909 2.554909 2.554909 2.550759 2.526450 2.493214 2.472260 2.418772 2.394897 2.386757 2.381695 2.381695 2.386783 2.402929 2.448881 2.541625 2.554909 2.559735 2.573626 2.569371 2.554909 2.554909 2.554909 2.554909 2.554909 2.554909 2.554909 2.554909 2.554909 2.554909 2.554909 2.554909 2.556216 2.573626 2.564096 2.564099 2.564102 2.564105 2.564107 2.564109 2.564111 2.573224 2.564621 2.573626 2.573626 2.573626 2.581936 2.582973 2.574870 2.573626 2.573626 2.565829 2.575390 2.580986 2.575606 2.573626 2.573626 2.580554 2.573626 2.573626 2.566887 2.570644 2.573626 2.573626 2.567367 2.576105 2.582918 2.582934 2.582943 2.582952 2.582963 2.582974 2.577933 2.573626 2.573626 2.573626 2.573626 2.573626 2.573626 2.573626 2.573626 2.573626 2.573626 2.586614 2.589394 2.580113 2.570744 2.564530 2.564568 2.564607 2.557219 2.564739 2.564787 2.564837 2.566378 2.573626 2.573626 2.572605 2.554909 2.554909 2.554530 2.546809 2.546885 2.546965 2.554665 2.554909 2.565045 2.566019 2.582448 2.585110 2.575686 2.573626 2.568141 2.566686 2.550260 2.548453 2.548590 2.552621 2.551261 2.549028 2.549184 2.543025 2.542623 2.549858 2.550040 2.551999 2.554909 2.553548 2.551988 2.536462 2.536462 2.538757 2.551944 2.553679 2.570293 2.552694 2.552958 2.570604 2.572206 2.558307 2.554909 2.568285
0.000000 0.000000 0.000000 0.000000 0.000000 0.000000 0.000000 0.000000 0.000000 0.000000 0.000000 1.364272 1.364496 1.369077 1.369761 1.374420 0.000000 0.000000 0.000000 0.000000 0.000000 0.000000 0.000000 0.000000 0.000000 0.000000 0.000000 0.000000 0.000000 0.000000 0.000000 0.000000 1.484891 1.491213 1.504098 1.517087 1.529495 1.530719 0.000000 0.000000 0.000000 0.000000 1.529963 1.524916 1.517495 0.000000 1.694892 1.727739 1.726290 1.726290 1.726290 1.713725 1.709736 1.701211 1.695783 1.693297 1.693012 1.693012 0.000000 1.687911 1.684892 1.684892 1.684892 1.684892 1.684892 1.684892 1.684892 1.684892 1.684892 1.684892 1.684892 1.680615 1.682255 0.000000 0.000000 0.000000 0.000000 0.000000 0.000000 0.000000 0.000000 0.000000 0.000000 0.000000 0.000000 0.000000 0.000000 0.000000 0.000000 0.000000 0.000000 0.000000 0.000000 0.000000 0.000000 0.000000 0.000000 0.000000 0.000000 0.000000 0.000000 0.000000 0.000000 1.600456 1.597744 1.593197 1.593197 1.593197 1.592508 1.591097 1.589484 1.586004 1.583886 1.578876 1.578876 1.578303 1.576665 1.575466 1.606094 0.000000 1.729008 1.730837 1.727978 1.734815 1.734815 1.734815 1.737127 1.751816 1.767157 1.771757 1.785017 1.790347 1.812492 1.842678 0.000000 2.183850 2.207826 0.000000 2.483061 2.489712 2.500356 2.500356 2.500356 2.500356 2.500356 2.500356 2.500356 0.000000 0.000000 0.000000 0.000000 1.873600 1.868145 1.864189 1.858682 1.854437 1.853826 1.853826 1.857178 1.862512 1.863660 1.863660 0.000000 2.084012 2.161846 2.161846 2.161846 2.161846 2.161846 0.000000 2.390631 2.508316 2.520434 2.526417 2.526447 2.541705 2.551055 2.554909 2.548922 2.544921 2.544948 2.544975 2.549534 2.545051 2.545075 2.550097 2.550010 2.549907 2.550244 2.549718 2.554909 2.554909 2.551145 2.534803 2.504270 2.469057 2.421973 2.397515 2.381695 2.381695 2.381695 2.386771 2.402917 2.436152 2.508330 2.554909 2.557272 2.566438 2.569381 2.554909 2.554909 2.554909 2.553209 2.547150 2.554909 2.554909 2.554909 2.554909 2.554909 2.554909 2.554909 2.555558 2.564198 2.554909 2.554909 2.554909 2.554909 2.554909 2.554909 2.554909 2.563826 2.555406 2.564225 2.564227 2.564228 2.564229 2.564230 2.564232 2.564233 2.564234 2.556582 2.554909 2.554909 2.554909 2.554909 2.562014 2.564252 2.554909 2.554909 2.554909 2.554909 2.554909 2.554909 2.554909 2.554909 2.554909 2.560572 2.553354 2.545767 2.550917 2.554909 2.554909 2.554909 2.564439 2.568887 2.569316 2.564500 2.564523 2.564547 2.564573 2.560714 2.558648 2.577117 2.576934 2.564610 2.561591 2.554909 2.552428 2.548496 2.554909 2.554909 2.554909 2.554909 2.556607 2.566396 2.572497 2.564042 2.546776 2.546846 2.546476 2.536462 2.536462 2.536462 2.546858 2.547332 2.547424 2.547620 2.563711 2.566443 2.560817 2.565236 2.552436 2.548297 2.540102 2.536462 2.536462 2.544236 2.538149 2.534072 2.536462 2.536462 2.536462 2.536462 2.536462 2.543227 2.553491 2.546477 2.541484 2.536462 2.536462 2.536462 2.536462 2.537531 2.552281 2.536587 2.536462 2.552119 2.554162 2.554816 2.554909 2.555035
0.000000 0.000000 0.000000 0.000000 0.000000 0.000000 0.000000 0.000000 0.000000 0.000000 0.000000 0.000000 0.000000 0.000000 0.000000 0.000000 0.000000 0.000000 0.000000 0.000000 0.000000 0.000000 0.000000 0.000000 0.000000 0.000000 0.000000 0.000000 0.000000 0.000000 0.000000 0.000000 0.000000 0.000000 1.498283 1.515746 1.529398 1.532002 0.000000 0.000000 0.000000 0.000000 1.530719 1.525054 1.517495 0.000000 1.694544 1.727751 1.726290 1.726290 1.726290 1.718460 1.710918 1.702708 1.694830 1.693012 1.693012 1.687872 0.000000 1.685242 1.680018 1.678256 1.683025 1.684892 1.684892 1.684892 1.684892 1.684892 1.684892 1.680568 1.678413 1.677401 1.677878 0.000000 0.000000 0.000000 0.000000 0.000000 0.000000 0.000000 0.000000 0.000000 0.000000 0.000000 0.000000 0.000000 0.000000 0.000000 0.000000 0.000000 0.000000 0.000000 0.000000 0.000000 0.000000 0.000000 0.000000 0.000000 0.000000 0.000000 0.000000 0.000000 0.000000 1.600456 1.599688 1.598364 1.593197 1.593197 1.593197 1.593197 1.592518 1.589483 1.583904 1.578876 1.578876 1.578876 1.578876 1.577167 1.582532 1.643275 1.732589 1.734228 1.732502 1.734815 1.734815 1.735764 1.743188 1.760476 1.775572 1.777153 1.787786 1.823421 0.000000 2.161021 2.173154 0.000000 2.465744 2.472428 2.482686 2.483500 2.500356 2.500356 2.500356 2.500356 2.500356 2.500356 2.483590 0.000000 0.000000 0.000000 0.000000 1.867760 1.864163 1.863660 1.860104 1.854689 1.853826 1.853826 1.858328 1.862788 0.000000 1.863660 0.000000 2.083393 2.161846 2.161846 2.161846 2.161846 0.000000 2.286903 2.449860 2.500356 2.512336 2.518280 2.523583 2.526630 2.537916 2.544990 2.539917 2.536462 2.530888 2.532228 2.540436 2.536462 2.536462 2.540913 2.540859 2.540745 2.541071 2.545022 2.554909 2.554909 2.550878 2.533969 2.503633 2.469089 2.424970 2.405637 2.387075 2.381695 2.384348 2.394992 2.411239 2.442536 2.509185 2.554909 2.554909 2.557196 2.560008 2.545640 2.545649 2.545657 2.543995 2.538021 2.545679 2.545691 2.545697 2.546752 2.553956 2.545712 2.545716 2.546360 2.554909 2.554909 2.554909 2.554909 2.554909 2.554909 2.554909 2.554909 2.554909 2.554909 2.546448 2.545753 2.545754 2.545756 2.545757 2.553683 2.547084 2.553471 2.547407 2.553152 2.554909 2.554909 2.554909 2.554909 2.554909 2.548290 2.545797 2.545802 2.552071 2.554909 2.554909 2.554909 2.549101 2.549341 2.551299 2.544016 2.536462 2.541769 2.545919 2.550743 2.554909 2.559766 2.559577 2.560052 2.554909 2.554909 2.554909 2.554909 2.554909 2.551692 2.546250 2.546285 2.543117 2.536462 2.536462 2.536462 2.536462 2.536462 2.538618 2.544681 2.538295 2.548112 2.554909 2.554909 2.536462 2.536462 2.536462 2.536462 2.536462 2.536462 2.536462 2.536462 2.536462 2.530331 2.529694 2.529803 2.529915 2.530031 2.530151 2.521192 2.518280 2.530435 2.530573 2.530715 2.530863 2.523514 2.525494 2.534067 2.536462 2.536462 2.536462 2.536462 2.541574 2.546240 2.536462 2.540368 2.536462 2.536462 2.536462 2.536462 2.536462 2.536462 2.536462 2.536462 2.536462 2.536462 2.550757 2.554909 2.554909
0.000000 0.000000 0.000000 0.000000 0.000000 0.000000 0.000000 0.000000 0.000000 0.000000 0.000000 0.000000 0.000000 0.000000 0.000000 0.000000 0.000000 0.000000 0.000000 0.000000 0.000000 0.000000 0.000000 0.000000 0.000000 0.000000 1.425152 1.435521 1.453663 1.465317 0.000000 0.000000 0.000000 0.000000 0.000000 1.520748 1.540313 1.537311 1.531394 0.000000 0.000000 0.000000 1.525942 1.519545 1.523219 1.666364 1.728316 1.727764 1.726290 1.726290 1.726290 1.719519 1.711197 1.703007 1.694843 1.693012 1.693012 1.686863 0.000000 0.000000 0.000000 0.000000 1.682608 1.684892 1.680304 1.678394 1.678409 1.678425 1.678441 1.679553 1.676850 1.676850 1.676850 1.676850 0.000000 0.000000 0.000000 0.000000 0.000000 0.000000 0.000000 0.000000 0.000000 0.000000 0.000000 0.000000 0.000000 0.000000 0.000000 0.000000 0.000000 0.000000 0.000000 0.000000 0.000000 0.000000 0.000000 0.000000 0.000000 0.000000 0.000000 0.000000 1.600456 1.600456 1.600456 1.600456 1.593197 1.593197 1.593197 1.593197 1.591665 1.587581 1.585345 1.578876 1.578876 1.578876 1.578876 1.577186 1.593600 1.683428 1.729177 1.729199 1.729220 1.730268 1.734815 1.735317 1.738821 1.750752 1.789527 1.784919 1.787786 1.843425 0.000000 2.457782 2.449650 2.465263 2.465263 2.466357 2.482686 2.483458 2.500356 2.500356 2.500300 2.489712 2.489705 2.489746 2.482927 2.466024 0.000000 0.000000 1.863660 1.863660 1.863660 1.863660 1.863660 1.855341 1.853826 1.853826 1.857277 1.862520 1.863660 1.863660 0.000000 2.082784 2.161846 2.161846 2.156518 2.161846 0.000000 2.399576 2.505895 2.500356 2.505856 2.512042 2.514782 2.518280 2.523503 2.532635 2.536462 2.530854 0.000000 0.000000 2.526936 2.526983 2.531902 2.536462 2.536462 2.536462 2.536462 2.545002 2.554909 2.550826 2.541684 2.521516 2.493265 2.469120 2.421895 2.400264 2.386971 2.381695 2.386925 2.403075 2.419444 2.465816 2.554855 2.554909 2.554909 2.554909 2.550744 2.536462 2.536462 2.536462 2.536462 2.534933 2.528890 2.536462 2.536462 2.537525 2.544847 2.536462 2.536462 2.537112 2.546360 2.554579 2.545839 2.545967 2.554909 2.554909 2.554909 2.546132 2.545853 2.545856 2.537178 2.536462 2.536462 2.536462 0.000000 0.000000 2.537824 2.545874 2.538152 2.544067 2.545882 2.545885 2.545888 2.545892 2.545897 2.539052 2.536462 2.536462 2.542970 2.545932 2.545940 2.545949 2.539882 2.540130 2.542179 2.540383 2.536462 2.536462 2.536462 2.541597 2.546080 2.550576 2.554909 2.554909 2.554909 2.554909 2.554909 2.554909 2.546329 2.542715 2.536462 2.536462 2.536462 2.536462 2.536462 2.536462 2.536462 2.536462 2.536462 2.536462 2.536462 2.538121 2.548146 2.553949 2.529564 2.536462 2.536462 2.536462 2.536390 2.529386 2.529405 2.529498 2.529595 2.519586 2.518280 2.518280 2.518280 2.518280 2.518280 2.518280 2.518280 2.518280 2.518280 2.518280 2.518280 2.515502 2.513578 2.513746 2.513919 2.515990 2.523954 2.527450 2.518280 2.518280 2.518280 2.518280 2.518280 2.518000 2.516625 2.519302 2.535117 2.535387 2.536421 2.536462 2.536462 2.536462 2.536980 2.549628 2.554909
0.000000 0.000000 0.000000 0.000000 0.000000 0.000000 0.000000 0.000000 0.000000 0.000000 0.000000 0.000000 0.000000 0.000000 0.000000 0.000000 0.000000 0.000000 0.000000 0.000000 0.000000 0.000000 0.000000 0.000000 0.000000 0.000000 1.429874 1.446033 1.459939 1.471321 0.000000 0.000000 0.000000 0.000000 0.000000 1.522161 1.542086 1.537544 1.536445 0.000000 0.000000 0.000000 1.529750 1.523947 1.697519 0.000000 1.734815 1.727790 1.726290 1.726290 1.726290 1.719546 1.711224 1.703034 1.700002 1.694557 1.693012 1.686877 0.000000 0.000000 0.000000 0.000000 1.682578 1.684892 1.683757 1.683259 1.683243 1.683228 1.680705 1.677455 1.672809 1.670675 1.669538 1.670034 1.665261 1.660993 1.660993 0.000000 0.000000 0.000000 0.000000 0.000000 0.000000 0.000000 1.668884 1.664685 1.662070 1.668884 1.668884 1.668884 1.668884 0.000000 0.000000 0.000000 0.000000 0.000000 0.000000 0.000000 0.000000 0.000000 0.000000 0.000000 1.600456 1.600456 1.600456 1.600456 1.593197 1.593197 1.593197 1.593197 1.592490 1.589419 1.586004 1.578876 1.578876 1.578876 1.578876 1.599549 1.682424 1.726290 1.726290 1.726290 1.726290 1.727836 1.734815 1.734815 1.740737 1.777034 1.795681 1.787786 1.824702 0.000000 2.187438 2.464617 2.459280 2.465263 2.465263 2.466315 2.482686 2.482972 2.489637 2.500221 2.489741 2.482734 2.482686 2.482686 2.472772 2.434256 2.431142 1.873600 1.869616 1.869324 1.864371 1.863660 1.863660 1.860023 1.854743 1.853826 1.859270 1.862741 1.863660 1.979289 0.000000 2.125041 2.161846 2.152182 2.152979 2.159762 0.000000 2.392809 2.502943 2.500356 2.500356 2.503333 2.505712 2.508829 2.514631 2.523489 2.526955 2.521911 0.000000 0.000000 2.518280 2.518280 2.522848 2.531858 2.536462 2.536462 2.536462 2.544982 2.554909 2.550934 2.545691 2.526917 2.493281 2.469151 2.421924 2.397382 2.381695 2.381695 2.392100 2.414295 2.424386 2.473019 2.539478 2.545809 2.548149 2.554909 2.550753 2.536462 2.536462 2.534755 2.527562 2.525993 2.519744 2.527586 2.528697 2.536462 2.536462 2.536462 2.536462 2.536462 2.537013 2.554239 2.536462 2.536592 2.545950 2.545953 2.545955 2.536758 2.536462 2.536462 2.536462 2.536462 2.536462 2.536462 2.528728 2.527657 2.535178 2.536462 2.529248 2.527670 2.534667 2.536462 2.536462 2.536462 2.536462 2.536462 2.536462 2.536462 2.536462 2.536462 2.536462 2.536462 2.536462 2.531133 2.527793 2.527806 2.527821 2.527836 2.527853 2.532458 2.536462 2.550524 2.554909 2.554909 2.551016 2.550097 2.551284 2.546410 2.536462 2.533429 2.528219 2.528258 2.530904 2.536462 2.536462 2.536462 2.536462 2.536462 2.536462 2.536462 2.536462 2.536462 2.537931 2.545995 2.519166 2.529173 2.529253 2.529336 2.529364 2.518445 2.518280 2.518280 2.518280 2.518280 2.518280 2.513150 2.512261 2.512383 2.512508 2.512638 2.512772 2.516539 2.518280 2.518280 2.515470 2.506180 2.500356 2.496324 2.496505 2.504117 2.514755 2.513775 2.513058 2.515373 2.515591 2.515815 2.515970 2.512810 2.500380 2.517033 2.517297 2.517568 2.534787 2.536313 2.536462 2.536462 2.549003 2.554449 2.554909
0.000000 0.000000 0.000000 0.000000 0.000000 0.000000 0.000000 0.000000 0.000000 0.000000 0.000000 0.000000 0.000000 0.000000 0.000000 0.000000 0.000000 0.000000 0.000000 0.000000 0.000000 0.000000 0.000000 0.000000 1.429887 1.430040 1.435620 1.448014 1.464850 1.472511 1.472956 1.478698 0.000000 0.000000 1.503313 1.527097 1.537624 1.537418 1.537418 1.537418 1.537418 0.000000 1.531524 1.525091 1.697411 0.000000 1.734815 1.727803 1.731924 1.727602 1.726290 1.719560 1.716558 1.703048 1.701211 1.694938 1.693012 1.693012 1.686958 1.684892 1.679056 1.676850 1.682563 1.684892 1.680501 1.682950 1.684892 1.680661 1.677467 1.672818 1.669531 1.668884 1.668884 1.668884 1.663970 1.657403 1.654082 1.657802 1.660993 1.660993 1.656521 1.657573 1.656636 1.657457 1.660993 1.661998 1.660993 1.662096 1.666042 1.669982 1.671119 1.667082 0.000000 0.000000 0.000000 0.000000 0.000000 0.000000 0.000000 0.000000 0.000000 1.607780 1.600456 1.600456 1.600456 1.600456 1.596465 1.593197 1.593197 1.591713 1.587698 1.586004 1.586004 1.578876 1.578876 1.578876 1.578876 1.609870 0.000000 1.720808 0.000000 0.000000 0.000000 0.000000 1.740257 0.000000 0.000000 0.000000 1.794939 1.782853 1.846833 0.000000 2.475967 2.474894 2.465263 2.465263 2.465976 2.476161 2.482686 2.482686 2.482686 2.489785 2.482686 2.482686 2.482686 2.482686 2.475637 1.953372 1.894600 1.874182 1.873600 1.873600 1.864931 1.863660 1.863660 0.000000 0.000000 0.000000 1.863660 1.863660 1.863660 0.000000 2.084921 2.161846 2.161846 2.152205 2.153663 0.000000 0.000000 2.386949 2.500356 2.500356 2.494158 2.497143 2.500356 2.500356 2.505626 2.509000 2.509026 2.509050 2.504100 2.505236 2.509144 2.509166 2.509187 2.518302 2.527281 2.527301 2.531640 2.540706 2.545673 2.545709 2.545727 2.523328 2.484583 2.460649 2.425012 2.408459 2.397629 2.394944 0.000000 2.420301 2.427008 2.466847 2.504019 2.536462 2.538882 2.548042 2.550761 2.534582 2.527652 2.525865 2.518280 2.518280 2.517007 2.509633 2.511875 2.528693 2.536462 2.535659 2.527714 2.527717 2.528228 2.545385 2.527730 2.527733 2.527756 2.536385 2.536462 2.536462 2.528216 2.535891 2.528417 2.535693 2.528620 2.527758 2.519437 2.518280 2.526381 2.527772 2.519988 2.518280 2.532733 2.536462 2.536462 2.536462 2.536462 2.536462 2.536462 2.536462 2.536462 2.536462 2.536462 2.536462 2.530980 2.525297 2.518280 2.513339 2.514692 2.518280 2.518280 2.523458 2.532405 2.541345 2.550476 2.554909 2.546553 2.540835 2.542261 2.536462 2.536462 2.529821 2.518280 2.518280 2.521501 2.530894 2.536462 2.534332 2.530618 2.536462 2.536462 2.536462 2.535187 2.530119 2.536462 2.535616 2.504163 2.504319 2.504481 2.504375 2.491516 2.504743 2.511456 2.517883 2.512673 2.512134 2.512247 2.497552 2.499247 2.495978 2.494893 2.498939 2.500356 2.508873 2.516506 2.515443 2.505977 2.497989 2.496242 2.482686 2.482686 2.488474 2.497167 2.491269 2.484569 2.495230 2.495669 2.496120 2.494525 2.479921 2.481653 2.498632 2.500350 2.500356 2.516710 2.518499 2.522677 2.532185 2.537512 2.538285 2.538630
0.000000 0.000000 0.000000 0.000000 0.000000 0.000000 0.000000 0.000000 0.000000 0.000000 0.000000 0.000000 0.000000 0.000000 0.000000 0.000000 0.000000 0.000000 0.000000 0.000000 0.000000 0.000000 0.000000 0.000000 1.430763 1.430957 1.441227 1.453027 1.466047 1.472566 1.472956 1.478691 0.000000 0.000000 1.503297 1.528076 1.536710 1.537418 1.537418 1.537418 1.537418 0.000000 1.531709 1.525101 1.697077 0.000000 1.734815 1.733438 1.734500 1.727923 1.726290 1.719573 1.717848 1.708153 1.702717 1.694952 1.693012 1.693012 1.686973 1.684892 1.683601 1.683092 1.684364 1.684892 1.679287 1.682384 1.684892 1.679451 1.672826 1.669542 1.668884 1.668884 1.665107 1.662947 1.661742 1.656254 1.656640 1.660160 1.660993 1.660993 1.656538 1.654347 1.654114 1.654335 1.658337 1.660993 1.658083 1.658235 1.664939 1.668884 1.668884 1.665102 0.000000 0.000000 0.000000 0.000000 0.000000 0.000000 0.000000 0.000000 0.000000 1.607780 1.607780 1.605094 1.600456 1.600456 1.598850 1.594855 1.593197 1.592435 1.589295 1.586004 1.586004 1.578876 1.578876 1.578876 1.578876 0.000000 0.000000 0.000000 0.000000 0.000000 0.000000 0.000000 1.751026 0.000000 0.000000 0.000000 0.000000 0.000000 0.000000 0.000000 0.000000 2.481081 2.465838 2.471812 2.465263 2.465263 2.465580 2.472488 2.472528 2.472607 2.472646 2.472684 2.472723 2.472761 2.456253 1.925108 1.884480 1.874603 1.873600 1.873600 1.864951 1.863660 1.863660 0.000000 0.000000 0.000000 1.863660 1.863660 1.863660 0.000000 2.084335 2.161846 2.161846 2.152228 2.153089 0.000000 2.268157 2.435786 2.497432 2.500356 2.488603 2.488236 2.496996 2.500356 2.500356 2.500356 2.500356 2.500356 2.500356 2.500356 2.500356 2.500356 2.500356 2.504870 2.509341 2.509361 2.517874 2.531603 2.527488 2.527505 2.523799 2.503877 2.475741 2.451975 2.425025 2.414433 2.414433 2.408936 0.000000 2.414433 2.424412 2.455584 2.486538 2.521322 2.529947 2.540756 2.548796 2.525733 2.518280 2.518280 2.518280 2.516834 2.508353 2.500356 2.502571 2.520327 2.536462 2.534792 2.518280 2.518280 2.518831 2.527180 2.509774 2.509777 2.509819 2.527678 2.527844 2.527847 2.518795 2.527225 2.519012 2.527011 2.519231 2.518280 2.518280 2.518280 2.518280 2.518280 2.518280 2.525147 2.534480 2.536462 2.536462 2.529955 2.534304 2.536462 2.536462 2.536462 2.536462 2.536462 2.536462 2.536462 2.530221 2.525311 2.518280 2.507751 2.505873 2.510025 2.514535 2.518280 2.523393 2.536462 2.541271 2.550433 2.546582 2.536462 2.536462 2.536462 2.536462 2.529859 2.518280 2.518280 2.518280 2.521375 2.528698 2.525943 2.520909 2.528913 2.528973 2.529036 2.527306 2.519880 2.529239 2.527291 2.482191 2.476064 2.476146 2.475893 2.454409 2.475848 2.493277 2.510822 2.501657 2.500356 2.495508 2.484817 2.492411 2.485436 2.482686 2.491813 2.495542 2.498725 2.508675 2.505773 2.500356 2.490737 2.482686 2.482686 2.481300 2.479629 2.479827 2.474219 2.462852 2.463065 2.463284 2.463509 2.461746 2.447247 2.449820 2.466420 2.499643 2.500356 2.500616 2.515833 2.518551 2.531571 2.536462 2.536462 2.536462
0.000000 0.000000 0.000000 0.000000 0.000000 0.000000 0.000000 0.000000 0.000000 0.000000 0.000000 0.000000 0.000000 0.000000 0.000000 0.000000 0.000000 0.000000 0.000000 0.000000 0.000000 0.000000 0.000000 0.000000 1.430757 1.430957 1.442162 1.458733 1.466385 1.472559 1.472956 1.478683 1.479158 0.000000 1.503281 1.523199 1.531266 1.537418 1.537418 1.537418 1.537418 0.000000 0.000000 0.000000 0.000000 0.000000 1.734815 1.734815 1.734815 1.727937 1.726290 1.719587 1.717848 1.709489 1.703129 1.699833 1.699386 1.694612 1.691652 1.691163 1.684892 1.684892 1.684892 1.684892 1.683558 1.684286 1.680734 1.677487 1.671586 1.668884 1.668884 1.668884 1.663891 1.660993 1.660993 1.656271 1.657825 1.660993 1.660993 1.660993 1.659771 1.655659 1.653176 1.653176 1.654355 1.655422 1.654275 1.654331 1.656625 0.000000 0.000000 1.662237 1.660993 0.000000 0.000000 0.000000 1.653176 1.653176 0.000000 0.000000 1.607780 1.607780 1.607780 1.605112 1.600456 1.600456 1.598054 1.593197 1.593197 1.593197 1.592439 1.589291 1.586004 1.578876 1.578876 1.580608 0.000000 0.000000 0.000000 0.000000 0.000000 0.000000 0.000000 0.000000 0.000000 0.000000 0.000000 0.000000 0.000000 0.000000 0.000000 0.000000 0.000000 0.000000 2.446704 2.464551 2.455224 2.455263 2.455718 2.464941 2.455380 2.455456 2.455494 2.455532 2.465014 2.455947 2.448424 1.931786 1.890076 1.879546 1.879049 1.874274 1.864991 1.863660 1.863660 0.000000 0.000000 0.000000 1.863660 1.859536 1.858437 0.000000 2.082232 2.161846 2.161846 2.152251 2.153510 0.000000 2.371814 2.467882 2.471076 2.479765 2.473883 2.473908 2.473933 2.479349 2.482686 2.482686 2.477596 2.479021 2.482686 2.482686 2.482686 2.482686 2.487313 2.496061 2.496124 2.491781 2.495815 2.504603 2.505569 2.500356 2.492961 2.482686 2.475755 2.452003 2.411268 2.406510 2.406522 2.403683 2.403210 2.414433 2.422015 2.447225 2.474889 2.502850 2.514347 2.532093 2.537973 2.509793 2.509800 2.509807 2.509813 2.500356 2.499135 2.492032 2.494233 2.510924 2.520281 2.526260 2.509858 2.509862 2.510350 2.517638 2.500356 2.500356 2.500376 2.509796 2.509887 2.518013 2.510348 2.517728 2.518280 2.518280 2.518280 2.518280 2.518280 2.518280 2.518280 2.511336 2.509931 2.517723 2.519599 2.519610 2.519621 2.512275 2.523447 2.528042 2.528051 2.528060 2.533827 2.536462 2.536462 2.531031 2.528117 2.522110 2.518280 2.512527 2.508440 2.508421 2.513775 2.518280 2.514096 2.532310 2.536462 2.544956 2.546612 2.536462 2.536462 2.536462 2.528587 2.524899 2.518280 2.515766 2.513055 2.518280 2.518280 2.518280 2.518280 2.518280 2.518280 2.519566 2.524249 2.518280 2.518280 2.498788 2.481473 2.465263 2.465263 2.465263 2.465263 2.465263 2.481783 2.493538 2.494610 2.494725 2.484638 2.478348 2.477495 2.477623 2.477756 2.477893 2.481189 2.491181 2.496098 2.496260 2.496428 2.489167 2.480906 2.479339 2.473697 2.465263 2.465263 2.459726 2.447482 2.446213 2.446798 2.448084 2.446339 2.435071 2.465975 2.482738 2.499715 2.484341 2.498371 2.501161 2.514943 2.531238 2.525784 2.520893 2.521247
0.000000 0.000000 0.000000 0.000000 0.000000 0.000000 0.000000 0.000000 0.000000 0.000000 0.000000 0.000000 0.000000 0.000000 0.000000 0.000000 1.380449 1.385991 1.402461 0.000000 0.000000 0.000000 0.000000 0.000000 1.430750 1.430957 1.437572 1.459472 1.466442 1.472552 1.472956 1.483333 1.488857 0.000000 1.508460 1.522602 1.530000 1.537418 1.532740 1.536708 1.537418 0.000000 0.000000 0.000000 0.000000 0.000000 1.739189 1.736045 1.734815 1.727950 1.726290 1.719600 1.717848 1.710957 1.708041 1.702742 1.701211 1.695087 1.693012 1.693012 1.686618 1.684892 1.684892 1.684892 1.684892 1.684892 1.679427 1.676850 1.671602 1.665069 1.663044 1.663060 1.661764 1.657418 1.655272 1.654025 1.654449 1.658649 1.660993 1.660993 1.660993 1.656630 1.653176 1.653176 1.653176 1.653176 1.650391 1.647762 1.647780 0.000000 0.000000 1.660993 1.660993 1.660993 1.660993 0.000000 1.656890 1.650646 1.642280 1.619687 1.611570 1.607780 1.607780 1.605129 1.600456 1.600456 1.599612 1.597863 1.596399 1.593197 1.593197 1.592445 1.589285 1.582180 1.577769 0.000000 0.000000 0.000000 0.000000 0.000000 0.000000 0.000000 0.000000 0.000000 0.000000 0.000000 0.000000 0.000000 0.000000 0.000000 0.000000 0.000000 0.000000 0.000000 0.000000 0.000000 2.447509 2.438830 2.448374 2.438467 2.438504 2.438554 2.448004 2.448084 2.455486 2.448370 2.448084 1.937999 1.894685 1.883646 1.883646 1.874864 1.869575 1.864429 1.863660 1.863660 1.863660 1.863660 1.863660 0.000000 1.863660 0.000000 2.092093 2.175232 2.165287 2.161846 2.161846 0.000000 2.354619 2.447984 2.453864 2.468199 2.465263 2.465263 2.465263 2.470691 2.474093 2.474116 2.468932 2.470373 2.478976 2.482686 2.482686 2.482686 2.482686 2.487271 2.487356 2.482686 2.487003 2.491922 2.491955 2.491970 2.488109 2.479341 2.467605 2.447114 2.414433 2.402980 2.397952 2.397952 2.403199 2.414433 2.421730 2.446537 2.474870 2.500356 2.500356 2.500356 2.496414 2.482686 2.482686 2.481161 2.474653 2.474658 2.482686 2.482686 2.482686 2.482686 2.484469 2.498745 2.484082 2.483233 2.492263 2.491928 2.482686 2.482809 2.492276 2.492279 2.492282 2.500097 2.500878 2.509364 2.517639 2.518280 2.518280 2.518280 2.518280 2.511128 2.511326 2.501990 2.493699 2.492236 2.492242 2.498595 2.500356 2.500356 2.513727 2.518280 2.518280 2.512569 2.522488 2.528198 2.528211 2.516482 2.510173 2.518280 2.518280 2.513579 2.510257 2.514730 2.518280 2.518280 2.508988 2.523248 2.528492 2.536933 2.538671 2.528587 2.528621 2.528658 2.510664 2.513404 2.515702 2.507383 2.503597 2.510891 2.510943 2.510997 2.512816 2.518280 2.518280 2.520222 2.527686 2.518280 2.517458 2.498322 2.475633 2.465263 2.465263 2.465263 2.465263 2.465263 2.476238 2.482238 2.477900 2.477349 2.477469 2.467615 2.461420 2.464121 2.465263 2.462068 2.473931 2.481179 2.482686 2.482686 2.482686 2.482686 2.475650 2.465263 2.465263 2.465263 2.464498 2.458538 2.443883 2.432692 2.435695 2.448084 2.449804 2.465263 2.465709 2.482465 2.483094 2.482751 2.483564 2.497488 2.518280 2.530899 2.524605 2.518280 2.518280
0.000000 0.000000 0.000000 0.000000 0.000000 0.000000 0.000000 0.000000 0.000000 0.000000 0.000000 0.000000 0.000000 0.000000 0.000000 0.000000 1.380444 1.385831 1.388967 0.000000 0.000000 0.000000 0.000000 0.000000 0.000000 0.000000 1.432038 1.463741 1.471367 1.472875 1.477556 1.484820 1.491183 1.497501 1.514386 1.527979 1.535295 1.537418 0.000000 0.000000 0.000000 0.000000 0.000000 0.000000 1.690308 1.726290 1.734856 1.735168 1.734815 1.733255 1.727623 1.714509 1.716453 1.709938 1.709489 1.707988 1.702772 1.699729 0.000000 1.694671 1.691556 1.686645 1.684892 1.684892 1.684892 1.684892 1.679443 1.676850 1.671618 1.663756 1.660993 1.660993 1.657423 1.653992 1.653176 1.655419 1.656476 1.660058 1.660993 1.660993 1.660993 1.659708 1.655654 1.653176 1.653176 1.650389 1.643884 1.640138 1.640155 0.000000 0.000000 0.000000 1.644764 1.652825 1.655741 0.000000 1.654674 1.647814 1.637235 1.619705 1.612332 1.607780 1.607780 1.605147 1.600456 1.600456 1.600456 1.600456 1.598213 1.593197 1.593197 1.593197 1.591222 1.584171 1.578202 0.000000 0.000000 0.000000 0.000000 0.000000 0.000000 0.000000 0.000000 0.000000 0.000000 0.000000 0.000000 0.000000 0.000000 0.000000 0.000000 0.000000 0.000000 0.000000 0.000000 0.000000 2.446017 2.431485 2.438521 2.431142 2.431142 2.431142 2.438625 2.438741 2.447804 2.439178 2.447626 1.915201 1.894221 1.889028 1.884279 1.874883 1.873600 1.869555 1.864478 1.863660 1.863660 1.863660 1.863660 1.863660 1.863660 0.000000 2.091522 2.175232 2.170301 2.168553 2.168511 0.000000 2.345621 2.431142 2.436920 2.451065 2.456782 2.456830 2.456853 2.462035 0.000000 2.465263 2.465263 2.465263 2.470341 2.478934 2.482686 2.482686 2.482686 2.482686 2.482686 2.482686 2.482686 2.482686 2.482686 2.482686 2.479296 2.470786 2.458471 2.441567 2.419340 2.408625 2.400521 2.408442 2.416866 2.424860 2.438872 2.462296 2.479497 2.492249 2.498384 2.492273 2.488372 2.474731 2.474737 2.472948 2.465263 2.465263 2.475913 2.482686 2.482686 2.482686 2.483661 2.491471 2.483449 2.482686 2.482686 2.482686 2.482686 2.482686 2.482686 2.482686 2.482686 2.492072 2.492392 2.492396 2.508820 2.501229 2.509223 2.510221 2.510226 2.509767 2.501915 2.493779 2.492399 2.484218 2.482686 2.482686 2.482686 2.482686 2.492498 2.492508 2.492519 2.492531 2.492543 2.492557 2.504289 2.500356 2.500356 2.500356 2.500356 2.500356 2.500356 2.500356 2.500356 2.500356 2.505252 2.510530 2.510560 2.515316 2.516364 2.510658 2.510694 2.510731 2.500356 2.506682 2.512175 2.500356 2.500356 2.500356 2.500356 2.500356 2.502968 2.511344 2.511410 2.512644 2.517243 2.511626 2.509605 2.491737 2.465263 2.465263 2.465263 2.465263 2.465263 2.465263 2.465263 2.476201 2.466832 2.460983 2.460338 2.460464 2.450860 2.457591 2.451912 2.456919 2.463881 2.473717 2.478998 2.479167 2.479341 2.479520 2.479705 2.465263 2.465263 2.465263 2.460226 2.449287 2.448084 2.448084 2.448084 2.448084 2.449553 2.465263 2.465266 2.465747 2.481544 2.482686 2.482686 2.496944 2.513925 2.530554 2.524957 2.518280 2.518280
0.000000 0.000000 0.000000 0.000000 0.000000 0.000000 0.000000 0.000000 0.000000 0.000000 0.000000 0.000000 0.000000 0.000000 0.000000 0.000000 1.380439 1.385842 1.390309 0.000000 0.000000 0.000000 0.000000 0.000000 0.000000 0.000000 1.444316 1.460998 1.472273 1.472956 1.478699 1.480359 1.490746 1.497493 1.515566 1.529329 1.536675 1.537418 0.000000 0.000000 0.000000 0.000000 0.000000 0.000000 1.691337 1.731709 1.739877 1.736037 1.734815 1.729586 1.726703 1.718041 1.717407 1.709489 1.709489 1.709489 1.703280 1.701211 0.000000 1.699683 1.693012 1.691510 1.690879 1.686707 1.684892 1.684892 1.679458 1.676850 1.671633 1.663772 1.657379 1.655366 1.654002 1.653176 1.653176 1.654091 1.654523 1.658684 1.657828 1.658618 1.660993 1.660993 1.656722 1.653176 1.650387 1.646612 1.641532 1.635170 1.632601 0.000000 0.000000 0.000000 0.000000 0.000000 1.648041 0.000000 1.648077 1.643809 1.627164 1.619723 1.612349 1.607780 1.607780 1.605164 1.600456 1.600456 1.600456 1.600456 1.598230 1.593197 1.593197 1.593197 1.591239 1.584188 1.578876 0.000000 0.000000 0.000000 0.000000 0.000000 0.000000 0.000000 0.000000 0.000000 0.000000 0.000000 0.000000 0.000000 0.000000 0.000000 0.000000 0.000000 0.000000 0.000000 0.000000 0.000000 0.000000 2.431142 2.431142 2.431142 2.431142 2.431142 2.431142 2.431142 2.438653 2.431466 2.438567 1.917380 1.894289 1.893800 1.889520 1.880124 1.874327 1.873600 1.865246 1.863660 1.863660 1.863660 1.863660 1.863660 1.863660 1.970590 0.000000 2.130555 2.175232 2.170378 2.168593 0.000000 2.345256 2.431142 2.431142 2.436908 2.439828 2.448084 2.448084 2.453546 0.000000 2.457028 2.457050 2.457070 2.461679 2.474437 2.474456 2.474475 2.474493 2.478584 2.478694 2.474545 2.474561 2.474577 2.478119 2.482686 2.475438 2.465263 2.458484 2.441579 2.425085 2.411275 2.408477 2.414433 2.417318 2.425869 2.433875 2.445245 2.462208 2.476872 2.490009 2.482686 2.478813 2.465263 2.465263 2.465263 2.465263 2.465263 2.466650 2.475912 2.482686 2.482686 2.482686 2.482686 2.482686 2.474897 2.474900 2.474904 2.474908 2.474911 2.474925 2.482609 2.482686 2.482686 2.482686 2.482686 2.491735 2.492505 2.492510 2.499474 2.500356 2.493581 2.493773 2.484359 2.482686 2.476483 2.475003 2.475011 2.480919 2.476977 2.480647 2.482686 2.482686 2.482686 2.482686 2.482686 2.489265 2.492704 2.492739 2.492758 2.492779 2.492800 2.492822 2.492846 2.492871 2.492898 2.492955 2.492985 2.493018 2.493052 2.493087 2.488669 2.486980 2.493204 2.495866 2.504121 2.507579 2.498155 2.493491 2.490443 2.482686 2.482686 2.482686 2.482686 2.484721 2.494004 2.492419 2.482686 2.482034 2.475620 2.459006 2.448084 2.448084 2.448084 2.459575 2.448729 2.459973 2.460083 2.460314 2.450041 2.444291 2.447152 2.444714 2.447000 2.448084 2.448084 2.456714 2.461720 2.461885 2.462056 2.462232 2.462413 2.462600 2.462792 2.464475 2.463402 2.463616 2.459354 2.448084 2.448084 2.448084 2.448084 2.449296 2.465263 2.465263 2.465263 2.481198 2.482686 2.482686 2.488939 2.497833 2.515255 2.510783 2.504188 2.504559
0.000000 0.000000 0.000000 0.000000 0.000000 0.000000 0.000000 0.000000 0.000000 0.000000 0.000000 0.000000 0.000000 0.000000 0.000000 0.000000 1.380429 1.385847 1.391353 0.000000 0.000000 0.000000 0.000000 0.000000 0.000000 0.000000 1.442403 1.455261 1.467352 1.472622 1.478683 1.479158 1.486124 1.501541 1.516047 1.529311 1.536657 1.537418 0.000000 0.000000 0.000000 0.000000 0.000000 1.538250 1.691345 1.733321 1.741860 1.736421 1.734815 1.733137 1.727612 1.719641 1.717848 1.709489 1.709489 1.709489 1.703294 1.701211 1.701211 0.000000 1.694725 1.693012 1.693012 1.687373 1.684892 1.684892 1.679473 1.676850 1.669668 1.663788 1.659552 1.655219 1.649750 1.651072 1.653176 1.653176 1.653176 1.654552 1.654196 1.657586 1.657979 1.655615 1.654298 1.650386 1.646623 1.642766 1.636396 1.631411 1.630162 1.630162 0.000000 0.000000 0.000000 0.000000 1.645433 1.645433 1.645433 1.644315 1.639607 1.624531 1.617097 1.610728 1.607780 1.605182 1.600456 1.600456 1.600456 1.600456 1.598247 1.593197 1.593197 1.593197 1.592433 1.585288 0.000000 0.000000 0.000000 0.000000 0.000000 0.000000 0.000000 0.000000 0.000000 0.000000 0.000000 0.000000 0.000000 0.000000 0.000000 0.000000 0.000000 0.000000 0.000000 0.000000 0.000000 0.000000 0.000000 0.000000 2.431142 2.431142 2.431142 2.431142 2.431142 2.431142 2.431142 2.431142 2.431142 1.920506 1.894746 1.893800 1.893800 1.884982 1.875021 1.873600 1.865264 1.863660 1.863660 1.863660 1.863660 1.863660 1.863660 1.863660 0.000000 2.087001 2.175232 2.161846 2.161846 0.000000 2.342430 2.431142 2.431142 2.431142 2.436816 2.439981 2.440004 2.444961 2.448084 0.000000 2.448084 2.448084 2.453188 2.465263 2.465263 2.465263 2.465263 2.469912 2.470055 2.465263 2.465263 2.465263 2.469360 2.474724 2.470811 2.462106 2.453769 2.441592 2.425096 2.414433 2.414433 0.000000 0.000000 2.419534 2.431142 2.433800 2.445157 2.482686 2.482686 2.480882 2.471076 2.459212 0.000000 2.465263 2.465263 2.465263 2.465263 2.466556 2.474968 2.475833 2.481906 2.474981 2.475591 2.465263 2.465263 2.465263 2.465263 2.465263 2.465274 2.474918 2.475020 2.475024 2.475032 2.475036 2.482088 2.482686 2.482686 2.491497 2.492623 2.484029 2.484263 2.482686 2.476476 2.467170 2.465263 2.465263 2.472847 2.467774 2.472509 2.475171 2.475183 2.475197 2.475211 2.475226 2.480133 2.482686 2.482686 2.482686 2.482686 2.482686 2.482686 2.482686 2.482686 2.482686 2.482686 2.482686 2.479360 2.475622 2.475659 2.475697 2.475738 2.475780 2.486573 2.493492 2.493543 2.488041 2.478043 2.480836 2.476192 2.476253 2.476384 2.476454 2.477617 2.481714 2.476679 2.476759 2.475645 2.464156 2.448084 2.448084 2.448084 2.448084 2.448084 2.448084 2.432418 2.441932 2.443637 2.433327 2.427826 2.427144 2.430188 2.443454 2.448084 2.445930 2.446895 2.448084 2.438442 2.431142 2.429909 2.428910 2.429101 2.437688 2.448084 2.448084 2.448084 2.448084 2.448084 2.448084 2.448084 2.448084 2.448112 2.449073 2.449354 2.464034 2.466921 2.467453 2.481653 2.498292 2.499348 2.511753 2.515949 2.506550 2.506891
0.000000 0.000000 0.000000 0.000000 0.000000 0.000000 0.000000 0.000000 0.000000 0.000000 0.000000 0.000000 1.379236 1.380354 1.380354 1.380433 1.384624 1.385874 1.396828 0.000000 0.000000 0.000000 0.000000 0.000000 0.000000 0.000000 1.433570 1.463477 1.472460 1.477366 1.483455 1.489699 1.491585 1.503262 1.522057 1.525501 1.531573 1.536774 0.000000 0.000000 0.000000 0.000000 0.000000 1.537687 1.542446 1.579026 1.588931 1.698466 1.728072 1.726744 1.726290 1.714841 1.716478 1.709489 1.709489 1.709489 1.703309 1.701211 1.702895 0.000000 1.695341 1.693707 1.693012 1.691425 1.686720 1.684892 1.683336 1.678764 1.670849 1.663803 1.660993 1.656071 1.651723 1.652268 1.653176 1.653176 1.653176 1.653176 1.653176 1.654569 1.654282 1.653176 1.653176 1.649096 1.645433 1.641507 1.633931 1.630162 1.630162 1.630162 0.000000 0.000000 0.000000 0.000000 1.640478 1.642589 1.643379 1.638535 1.634581 1.622517 1.615135 1.609519 1.607780 1.605199 1.600456 1.600456 1.600456 1.600456 1.598264 1.593197 1.593197 1.593197 1.593197 1.584945 1.580068 1.574034 0.000000 0.000000 0.000000 0.000000 0.000000 0.000000 0.000000 0.000000 0.000000 0.000000 0.000000 0.000000 0.000000 0.000000 0.000000 0.000000 0.000000 0.000000 0.000000 0.000000 0.000000 0.000000 2.431142 2.431142 2.431142 2.431142 2.431142 2.431142 2.431142 2.422762 1.935096 1.899205 1.894270 1.893800 1.893800 0.000000 0.000000 0.000000 1.865281 1.863660 1.863660 1.863660 1.863660 1.863660 1.863660 1.863660 0.000000 2.086472 2.175232 2.161846 2.161846 0.000000 2.342019 2.431142 2.431142 2.431142 2.431142 2.431142 2.431142 2.436635 2.440151 0.000000 2.440192 2.444695 2.448084 2.457337 2.457355 2.457372 2.457390 2.461306 2.461442 2.457438 2.457454 2.461799 2.460861 2.465263 2.462064 2.453727 2.448084 2.441603 2.425107 2.414433 2.414433 0.000000 0.000000 2.417270 2.425917 2.431142 2.435762 2.474992 2.474999 2.472749 2.461459 2.450093 2.457711 2.457717 2.457722 2.458899 2.464174 2.458744 2.465263 2.466353 2.474082 2.464589 2.458530 2.465263 2.465263 2.465263 2.465263 2.465263 2.465263 2.465263 2.465263 2.465263 2.465263 2.465263 2.474365 2.475146 2.481921 2.482686 2.482686 2.475176 2.475183 2.475191 2.467076 2.465263 2.465263 2.465263 2.465263 2.457939 2.457951 2.457964 2.463127 2.465263 2.465263 2.465263 2.476678 2.482686 2.482686 2.482686 2.482686 2.482686 2.482686 2.482686 2.478858 2.475593 2.475655 2.475689 2.470842 2.465263 2.465263 2.465263 2.467998 2.469272 2.476021 2.476071 2.476124 2.472769 2.468489 2.473215 2.465263 2.465263 2.465263 2.465263 2.467237 2.474990 2.465263 2.464598 2.460233 2.464248 2.447881 2.443047 2.448071 2.448084 2.448084 2.443691 2.426730 2.430564 2.431142 2.427836 2.417055 2.414433 2.426856 2.440776 2.445934 2.436116 2.439737 2.445363 2.437499 2.428681 2.420643 2.414433 2.414433 2.436121 2.446928 2.447149 2.447572 2.448084 2.448084 2.448084 2.448084 2.448084 2.448084 2.448084 2.448084 2.463611 2.465263 2.465263 2.467517 2.468831 2.477853 2.487858 2.489510 2.487765 2.488152
0.000000 0.000000 0.000000 0.000000 0.000000 0.000000 0.000000 0.000000 0.000000 0.000000 0.000000 0.000000 1.376297 1.380354 1.380354 1.380450 1.385799 1.385888 1.401117 0.000000 0.000000 0.000000 0.000000 0.000000 0.000000 0.000000 1.430957 1.473370 1.481978 1.483783 1.489683 1.491588 1.496075 1.503716 1.522031 1.524078 1.529947 1.536555 0.000000 0.000000 0.000000 0.000000 0.000000 1.544176 1.548320 1.549178 0.000000 1.936650 0.000000 2.116626 2.120999 2.119934 1.710024 1.709489 1.704985 0.000000 1.701816 1.701211 1.701211 1.701211 1.693012 1.693012 1.693012 1.693012 1.693012 1.687531 1.684892 1.684892 1.671696 1.667302 1.662977 1.660993 1.659449 1.653176 1.653176 1.653176 1.653176 1.650195 1.650929 1.653176 1.653176 1.653176 1.650384 1.641570 1.640187 1.636411 1.631461 1.630162 1.630162 1.630162 1.630162 1.630162 1.630162 1.630162 1.631368 1.632998 1.631838 1.628266 1.620842 1.616950 1.612401 1.607780 1.607780 1.605216 1.600456 1.600456 1.600456 1.600456 1.598281 1.593197 1.593197 1.593197 1.592070 1.584238 1.577187 1.571812 0.000000 0.000000 0.000000 0.000000 0.000000 2.397952 2.404251 2.431142 2.428330 2.414433 2.414433 2.414433 2.414433 0.000000 0.000000 0.000000 0.000000 0.000000 0.000000 0.000000 0.000000 0.000000 0.000000 2.431142 2.431142 2.431142 2.431142 2.422662 2.422448 2.414816 1.935094 1.894685 1.893800 1.893800 1.893800 0.000000 0.000000 0.000000 1.865299 1.863660 1.863660 1.863660 1.863660 1.863660 1.863660 1.863660 0.000000 0.000000 2.175232 2.170142 2.168165 0.000000 2.338774 2.428632 2.425842 2.428486 2.431142 2.431142 2.431142 2.431142 2.431142 0.000000 2.431142 2.440758 2.443836 2.444513 0.000000 2.448084 2.448084 2.452750 2.452929 2.448084 2.448084 2.453359 2.455494 2.465263 2.458157 2.448084 2.448084 2.441615 0.000000 0.000000 0.000000 2.414433 2.414433 2.414433 2.419338 2.431142 2.435754 2.457771 2.457778 2.457785 2.455651 2.448084 2.448084 2.448084 2.448084 2.449588 2.456423 2.449378 2.456938 2.450474 2.450483 2.449621 2.441353 2.457868 2.457872 2.458128 2.465263 2.465263 2.465263 2.465263 2.465263 2.465263 2.465263 2.465263 2.465263 2.465263 2.474235 2.475259 2.475265 2.465263 2.465263 2.465263 2.465263 2.459411 2.458004 2.458014 2.450503 2.448084 2.448084 2.448084 2.455146 2.458105 2.458121 2.462897 2.471951 2.475497 2.479940 2.478383 2.479769 2.478603 2.475637 2.475665 2.470102 2.465263 2.465263 2.462024 2.458536 2.458575 2.458614 2.458656 2.463011 2.461200 2.462969 2.461061 2.465263 2.463331 2.460867 2.465263 2.465263 2.459321 2.459391 2.460548 2.465263 2.464414 2.459703 2.458468 2.449174 2.459146 2.442493 2.426425 2.438342 2.443222 2.439118 2.427618 2.414433 2.425267 2.430488 2.417581 2.414433 2.414433 2.426711 2.431142 2.435907 2.429399 2.428548 2.428722 2.428900 2.413932 2.406898 2.413678 2.413599 2.421141 2.431142 2.431142 2.435583 2.448049 2.448084 2.448084 2.431998 2.432266 2.432542 2.432825 2.446997 2.450124 2.450694 2.451011 2.461889 2.465263 2.467962 2.469961 2.470332 2.476434 2.482686
